ply
format ascii 1.0
element vertex 691
property float x
property float y
property float z
property uchar red
property uchar green
property uchar blue
end_header
5.105881214141846 -3.5256845951080322 -1.2205514907836914 255 255 255
5.16057825088501 -3.565810441970825 -1.2908260822296143 255 255 255
5.2717742919921875 -3.531064748764038 -1.2721508741378784 255 255 255
5.18178653717041 -3.5431363582611084 -1.1612119674682617 255 255 255
5.22716760635376 -3.5406692028045654 -1.2090544700622559 255 255 255
5.2623491287231445 -3.4768733978271484 -1.2565571069717407 255 255 255
5.141878128051758 -3.4751250743865967 -1.2400296926498413 255 255 255
5.136380195617676 -3.4900598526000977 -1.2197139263153076 255 255 255
5.226090908050537 -3.5018603801727295 -1.2022721767425537 255 255 255
5.07757043838501 -3.3838589191436768 -1.219626545906067 255 255 255
5.2188720703125 -3.4036178588867188 -1.2120271921157837 255 255 255
5.1585307121276855 -3.390077590942383 -1.2573260068893433 255 255 255
5.218189239501953 -3.351973295211792 -1.1900393962860107 255 255 255
5.17593240737915 -3.40545392036438 -1.1737273931503296 255 255 255
5.244275093078613 -3.324284553527832 -1.1679754257202148 255 255 255
5.247304916381836 -3.224048137664795 -1.2772276401519775 255 255 255
5.2382121086120605 -3.3354556560516357 -1.1716883182525635 255 255 255
5.2469162940979 -3.2646749019622803 -1.2971134185791016 255 255 255
5.360921859741211 -3.2548272609710693 -1.0991052389144897 255 255 255
5.399046421051025 -3.2636828422546387 -1.2840907573699951 255 255 255
5.253333568572998 -3.2618000507354736 -1.2256349325180054 255 255 255
5.309834003448486 -3.2173612117767334 -1.1929036378860474 255 255 255
5.266244411468506 -3.250396490097046 -1.176091194152832 255 255 255
5.217883110046387 -3.2025821208953857 -1.2916407585144043 255 255 255
5.366321563720703 -3.2893877029418945 -1.1877167224884033 255 255 255
5.295620918273926 -3.2510061264038086 -1.2295863628387451 255 255 255
5.412292957305908 -3.039982557296753 -1.1512044668197632 255 255 255
5.37766695022583 -3.1735000610351562 -1.2489913702011108 255 255 255
5.40288782119751 -3.1286051273345947 -1.2186359167099 255 255 255
5.358911037445068 -3.150178909301758 -1.2230138778686523 255 255 255
5.331686496734619 -3.152594804763794 -1.1647863388061523 255 255 255
5.3059773445129395 -2.969365119934082 -1.259928584098816 255 255 255
5.3140549659729 -3.01814603805542 -1.1609984636306763 255 255 255
5.272058486938477 -3.0723819732666016 -1.2316526174545288 255 255 255
5.365272045135498 -2.9650332927703857 -1.1388237476348877 255 255 255
5.2950639724731445 -2.9128968715667725 -1.1196366548538208 255 255 255
5.336816787719727 -2.929382801055908 -1.1454415321350098 255 255 255
5.318076133728027 -2.883110284805298 -1.1498644351959229 255 255 255
5.260334014892578 -2.8947973251342773 -1.1724519729614258 255 255 255
5.298254489898682 -2.9060847759246826 -1.1643962860107422 255 255 255
5.3637590408325195 -2.869776725769043 -1.2153829336166382 255 255 255
5.480220794677734 -2.972764015197754 -1.2383215427398682 255 255 255
5.379513263702393 -2.8318939208984375 -1.1420344114303589 255 255 255
5.459422588348389 -2.8236660957336426 -1.2267049551010132 255 255 255
5.363829612731934 -2.786405563354492 -1.1797031164169312 255 255 255
5.390920639038086 -2.7946925163269043 -1.1594947576522827 255 255 255
5.524102210998535 -2.8422720432281494 -1.1488109827041626 255 255 255
5.430286407470703 -2.782625675201416 -1.1143147945404053 255 255 255
5.509916305541992 -2.802788257598877 -1.172576904296875 255 255 255
5.540823459625244 -2.7340099811553955 -1.153927206993103 255 255 255
5.460061073303223 -2.6888973712921143 -1.1750414371490479 255 255 255
5.524358749389648 -2.7087626457214355 -1.2036101818084717 255 255 255
5.581807613372803 -2.7504634857177734 -1.2963542938232422 255 255 255
5.4774627685546875 -2.6930134296417236 -1.1850310564041138 255 255 255
5.467278957366943 -2.820084810256958 -1.3136351108551025 255 255 255
5.695010185241699 -2.6834447383880615 -1.222085952758789 255 255 255
6.086259365081787 -2.944387435913086 -1.350383996963501 255 255 255
6.129126071929932 -2.9422006607055664 -1.391603708267212 255 255 255
6.087348461151123 -2.880582571029663 -1.355347752571106 255 255 255
6.0603346824646 -2.7625229358673096 -1.3088926076889038 255 255 255
6.239119052886963 -2.961397409439087 -1.3852101564407349 255 255 255
6.515713691711426 -2.979166269302368 -1.3963804244995117 255 255 255
6.708680629730225 -2.9556455612182617 -1.4377379417419434 255 255 255
6.669461727142334 -3.0260026454925537 -1.5064901113510132 255 255 255
7.303524971008301 -3.31594181060791 -1.5454866886138916 255 255 255
7.748040199279785 -3.3491837978363037 -1.5618159770965576 255 255 255
7.738070964813232 -3.414454936981201 -1.722243070602417 255 255 255
7.710258483886719 -3.3982064723968506 -1.709515929222107 255 255 255
7.878463268280029 -3.3167033195495605 -1.6197749376296997 255 255 255
7.911091327667236 -3.3588507175445557 -1.764341950416565 255 255 255
7.788486003875732 -3.3846144676208496 -1.6709554195404053 255 255 255
8.122283935546875 -3.3546433448791504 -1.8408690690994263 255 255 255
8.082185745239258 -3.380702018737793 -1.7841533422470093 255 255 255
8.156444549560547 -3.3741345405578613 -1.803313136100769 255 255 255
8.147331237792969 -3.3274855613708496 -1.776330828666687 255 255 255
8.12468433380127 -3.327751398086548 -1.792375922203064 255 255 255
8.132932662963867 -3.2910497188568115 -1.7355916500091553 255 255 255
8.065361022949219 -3.2763710021972656 -1.7541831731796265 255 255 255
8.150879859924316 -3.2060511112213135 -1.7296578884124756 255 255 255
8.19345760345459 -3.1974141597747803 -1.719082236289978 255 255 255
8.183629035949707 -3.1679933071136475 -1.8212038278579712 255 255 255
8.175215721130371 -3.136669635772705 -1.8091723918914795 255 255 255
8.194879531860352 -3.2012205123901367 -1.6664319038391113 255 255 255
8.326845169067383 -3.1033456325531006 -1.8098742961883545 255 255 255
8.149181365966797 -3.1529312133789062 -1.6756232976913452 255 255 255
8.194258689880371 -3.0612130165100098 -1.681976079940796 255 255 255
8.257489204406738 -3.007671356201172 -1.8294970989227295 255 255 255
8.088739395141602 -2.9831745624542236 -1.7405859231948853 255 255 255
8.135272979736328 -3.0177674293518066 -1.7551867961883545 255 255 255
8.338526725769043 -2.931215763092041 -1.7509135007858276 255 255 255
8.23644733428955 -3.0015451908111572 -1.7244441509246826 255 255 255
8.237594604492188 -2.8446578979492188 -1.7470314502716064 255 255 255
8.352509498596191 -2.890265941619873 -1.764746069908142 255 255 255
8.16505241394043 -2.8913257122039795 -1.7295269966125488 255 255 255
8.208635330200195 -2.9699623584747314 -1.7833831310272217 255 255 255
8.272543907165527 -2.845148801803589 -1.8292567729949951 255 255 255
8.26973819732666 -2.6743826866149902 -1.7010602951049805 255 255 255
8.249342918395996 -2.807569980621338 -1.7569531202316284 255 255 255
8.209373474121094 -2.7870893478393555 -1.725478172302246 255 255 255
8.229172706604004 -2.7318520545959473 -1.6326414346694946 255 255 255
8.299348831176758 -2.738529682159424 -1.8214666843414307 255 255 255
8.202786445617676 -2.601653575897217 -1.6840839385986328 255 255 255
8.180527687072754 -2.61793851852417 -1.7416313886642456 255 255 255
8.29570484161377 -2.6003406047821045 -1.6945220232009888 255 255 255
8.354129791259766 -2.573305606842041 -1.8040046691894531 255 255 255
8.300130844116211 -2.608433961868286 -1.7306888103485107 255 255 255
8.294984817504883 -2.440683603286743 -1.7860145568847656 255 255 255
8.238388061523438 -2.535341262817383 -1.6970833539962769 255 255 255
8.271588325500488 -2.4658446311950684 -1.7580641508102417 255 255 255
8.229700088500977 -2.4416050910949707 -1.8048770427703857 255 255 255
8.32598876953125 -2.4770755767822266 -1.7797070741653442 255 255 255
8.344426155090332 -2.368994951248169 -1.761220097541809 255 255 255
8.237621307373047 -2.4516141414642334 -1.6940104961395264 255 255 255
8.362920761108398 -2.3228251934051514 -1.7723908424377441 255 255 255
8.301918029785156 -2.2947640419006348 -1.735305905342102 255 255 255
8.345568656921387 -2.373072385787964 -1.7172126770019531 255 255 255
8.440484046936035 -2.2889959812164307 -1.712539553642273 255 255 255
8.379703521728516 -2.238330125808716 -1.7380822896957397 255 255 255
8.325101852416992 -2.2509078979492188 -1.6805227994918823 255 255 255
8.261931419372559 -2.105976104736328 -1.7445707321166992 255 255 255
8.216001510620117 -2.159609794616699 -1.6925246715545654 255 255 255
8.240890502929688 -2.2206051349639893 -1.6442431211471558 255 255 255
8.348752975463867 -2.096099615097046 -1.713563084602356 255 255 255
8.320124626159668 -2.2390048503875732 -1.7551214694976807 255 255 255
8.402463912963867 -2.109893798828125 -1.8137257099151611 255 255 255
8.369844436645508 -1.9830193519592285 -1.6883429288864136 255 255 255
8.405330657958984 -1.9803820848464966 -1.6784498691558838 255 255 255
8.483742713928223 -2.0522243976593018 -1.7277333736419678 255 255 255
8.368366241455078 -2.007338285446167 -1.7494043111801147 255 255 255
8.340922355651855 -1.8638712167739868 -1.6552684307098389 255 255 255
8.352090835571289 -1.874411702156067 -1.8213779926300049 255 255 255
8.305689811706543 -1.9576655626296997 -1.7723029851913452 255 255 255
8.285187721252441 -1.9004465341567993 -1.75215744972229 255 255 255
8.38209342956543 -1.8282612562179565 -1.7747195959091187 255 255 255
8.290813446044922 -1.7702113389968872 -1.6956281661987305 255 255 255
8.386062622070312 -1.9032411575317383 -1.6084858179092407 255 255 255
8.234842300415039 -1.816083312034607 -1.684710144996643 255 255 255
8.363487243652344 -1.8325473070144653 -1.6886292695999146 255 255 255
8.355854988098145 -1.7832154035568237 -1.692552089691162 255 255 255
8.363828659057617 -1.6483029127120972 -1.695475697517395 255 255 255
8.303231239318848 -1.608789324760437 -1.646697759628296 255 255 255
8.27780818939209 -1.6554324626922607 -1.6951314210891724 255 255 255
8.364640235900879 -1.7446784973144531 -1.6559388637542725 255 255 255
8.527223587036133 -1.6259055137634277 -1.726874828338623 255 255 255
8.476457595825195 -1.5688989162445068 -1.7649590969085693 255 255 255
8.402624130249023 -1.593410611152649 -1.7126673460006714 255 255 255
8.391279220581055 -1.5066001415252686 -1.655886173248291 255 255 255
8.303912162780762 -1.5153157711029053 -1.6360929012298584 255 255 255
8.193169593811035 -1.5367881059646606 -1.700528621673584 255 255 255
8.313834190368652 -1.4319390058517456 -1.6539956331253052 255 255 255
8.352180480957031 -1.2863264083862305 -1.7099074125289917 255 255 255
8.472929954528809 -1.42739737033844 -1.7483030557632446 255 255 255
8.4079008102417 -1.3760420083999634 -1.7151433229446411 255 255 255
8.416828155517578 -1.3549602031707764 -1.7128769159317017 255 255 255
8.327685356140137 -1.320204734802246 -1.7631537914276123 255 255 255
8.372418403625488 -1.3260564804077148 -1.7578645944595337 255 255 255
8.410911560058594 -1.225223422050476 -1.6621962785720825 255 255 255
8.365804672241211 -1.244706153869629 -1.5962440967559814 255 255 255
8.37694263458252 -1.2009868621826172 -1.769840955734253 255 255 255
8.402837753295898 -1.1728774309158325 -1.718765139579773 255 255 255
8.462920188903809 -1.1427764892578125 -1.6228584051132202 255 255 255
8.356932640075684 -1.2138665914535522 -1.6788743734359741 255 255 255
8.310892105102539 -1.0890477895736694 -1.7195806503295898 255 255 255
8.299460411071777 -1.0160266160964966 -1.704663634300232 255 255 255
8.299742698669434 -1.1602824926376343 -1.710028052330017 255 255 255
8.34383487701416 -1.0839227437973022 -1.7334964275360107 255 255 255
8.384203910827637 -0.9850066304206848 -1.7063283920288086 255 255 255
8.42437744140625 -1.0126473903656006 -1.5908764600753784 255 255 255
8.287830352783203 -0.9486331343650818 -1.733778953552246 255 255 255
8.304641723632812 -1.0091716051101685 -1.793015956878662 255 255 255
8.32352352142334 -0.8906766176223755 -1.6141743659973145 255 255 255
8.368426322937012 -0.929076075553894 -1.6147661209106445 255 255 255
8.411445617675781 -0.8307941555976868 -1.6510264873504639 255 255 255
8.40513801574707 -0.7902069687843323 -1.5574655532836914 255 255 255
8.422491073608398 -0.790399432182312 -1.6388126611709595 255 255 255
8.320672988891602 -0.8130910992622375 -1.6851491928100586 255 255 255
8.418069839477539 -0.7410710453987122 -1.6693065166473389 255 255 255
8.368300437927246 -0.7577986717224121 -1.6563676595687866 255 255 255
8.35020923614502 -0.7341005206108093 -1.6827099323272705 255 255 255
8.35534954071045 -0.7395524382591248 -1.6447114944458008 255 255 255
8.347519874572754 -0.7424834370613098 -1.6684367656707764 255 255 255
8.294902801513672 -0.6181344389915466 -1.633070468902588 255 255 255
8.260144233703613 -0.5927940011024475 -1.6718659400939941 255 255 255
8.293819427490234 -0.5671173334121704 -1.7249000072479248 255 255 255
8.352507591247559 -0.580394983291626 -1.6953343152999878 255 255 255
8.29838752746582 -0.5513420104980469 -1.6501847505569458 255 255 255
8.34182071685791 -0.4915267825126648 -1.6021240949630737 255 255 255
8.415881156921387 -0.5671226382255554 -1.6759228706359863 255 255 255
8.370033264160156 -0.3981035053730011 -1.6051154136657715 255 255 255
8.33315658569336 -0.38255298137664795 -1.5558527708053589 255 255 255
8.251388549804688 -0.4659683108329773 -1.6478277444839478 255 255 255
8.26989459991455 -0.3989666700363159 -1.6877740621566772 255 255 255
8.292263984680176 -0.47009798884391785 -1.7484418153762817 255 255 255
8.295821189880371 -0.3844374716281891 -1.6944899559020996 255 255 255
8.308479309082031 -0.41226503252983093 -1.6300151348114014 255 255 255
8.288017272949219 -0.38303518295288086 -1.5885636806488037 255 255 255
8.260799407958984 -0.241194948554039 -1.6825758218765259 255 255 255
8.351558685302734 -0.3138536512851715 -1.6371513605117798 255 255 255
8.286511421203613 -0.2985571622848511 -1.5986727476119995 255 255 255
8.219008445739746 -0.27456238865852356 -1.6839405298233032 255 255 255
8.260504722595215 -0.2579038441181183 -1.587215781211853 255 255 255
8.347819328308105 -0.1595788449048996 -1.6631436347961426 255 255 255
8.30416488647461 -0.14955002069473267 -1.6789065599441528 255 255 255
8.278061866760254 -0.07889489829540253 -1.578162670135498 255 255 255
8.302294731140137 -0.12924814224243164 -1.7105907201766968 255 255 255
8.292545318603516 -0.021215084940195084 -1.647189736366272 255 255 255
8.247920989990234 -0.004269895609468222 -1.6761072874069214 255 255 255
8.248425483703613 -0.04153331369161606 -1.580140233039856 255 255 255
8.24623966217041 0.04987121745944023 -1.6718236207962036 255 255 255
8.258397102355957 0.003203684464097023 -1.6513657569885254 255 255 255
8.29670238494873 0.017299769446253777 -1.6555017232894897 255 255 255
8.269749641418457 0.028730448335409164 -1.6986662149429321 255 255 255
8.18917465209961 0.11164823919534683 -1.6274999380111694 255 255 255
8.241140365600586 0.2235613465309143 -1.6216864585876465 255 255 255
8.282118797302246 0.08611056208610535 -1.57106351852417 255 255 255
8.215254783630371 0.16492769122123718 -1.618209958076477 255 255 255
8.26028823852539 0.24116744101047516 -1.722124695777893 255 255 255
7.889346122741699 0.15651172399520874 -1.649315595626831 255 255 255
7.894798755645752 0.20327794551849365 -1.6264196634292603 255 255 255
7.889639377593994 0.31343379616737366 -1.5692048072814941 255 255 255
7.819815158843994 0.206154927611351 -1.718135952949524 255 255 255
7.891770839691162 0.22561734914779663 -1.6126155853271484 255 255 255
7.918785095214844 0.331037700176239 -1.5987917184829712 255 255 255
7.872325420379639 0.2627272307872772 -1.6147270202636719 255 255 255
7.752628803253174 0.3426054120063782 -1.636494517326355 255 255 255
7.866187572479248 0.34966912865638733 -1.64298415184021 255 255 255
7.796846389770508 0.3699529767036438 -1.7024075984954834 255 255 255
7.886986255645752 0.4315448999404907 -1.5691033601760864 255 255 255
7.861639022827148 0.3857755661010742 -1.6089836359024048 255 255 255
7.847226619720459 0.5591490268707275 -1.7284871339797974 255 255 255
7.859379768371582 0.5398457050323486 -1.7133618593215942 255 255 255
7.852434158325195 0.6090314984321594 -1.6734251976013184 255 255 255
7.859534740447998 0.5464013814926147 -1.6775996685028076 255 255 255
7.776310443878174 0.5271598696708679 -1.6475002765655518 255 255 255
7.851485729217529 0.7164897918701172 -1.5799295902252197 255 255 255
7.816385269165039 0.6781189441680908 -1.6946468353271484 255 255 255
7.93151330947876 0.6367565393447876 -1.61780846118927 255 255 255
7.816083908081055 0.6938326954841614 -1.6445392370224 255 255 255
7.82236385345459 0.6644854545593262 -1.5788754224777222 255 255 255
7.773225784301758 0.7519339919090271 -1.6586337089538574 255 255 255
7.8728718757629395 0.7021505236625671 -1.617339015007019 255 255 255
7.795156002044678 0.6912498474121094 -1.5878100395202637 255 255 255
7.833924293518066 0.7790720462799072 -1.6131601333618164 255 255 255
7.785284996032715 0.7953653931617737 -1.5718144178390503 255 255 255
7.802328586578369 0.8065755367279053 -1.6148101091384888 255 255 255
7.810825824737549 1.0166940689086914 -1.6359590291976929 255 255 255
7.860898017883301 0.8364149928092957 -1.567465901374817 255 255 255
7.778336048126221 0.8531301021575928 -1.5715612173080444 255 255 255
7.696394920349121 0.7891300320625305 -1.6045703887939453 255 255 255
7.780623912811279 1.0154250860214233 -1.5827382802963257 255 255 255
7.698967456817627 1.0066771507263184 -1.587910532951355 255 255 255
7.792164325714111 1.0052034854888916 -1.5673900842666626 255 255 255
7.741002082824707 1.0125517845153809 -1.6135592460632324 255 255 255
7.642570495605469 1.1716523170471191 -1.7251474857330322 255 255 255
7.71229887008667 1.0650476217269897 -1.5968351364135742 255 255 255
7.70682430267334 1.1422474384307861 -1.613892674446106 255 255 255
7.683254718780518 1.1301591396331787 -1.6716787815093994 255 255 255
7.645989418029785 1.2193078994750977 -1.568497896194458 255 255 255
7.598160743713379 1.0702095031738281 -1.532457709312439 255 255 255
6.724992275238037 0.9968780279159546 -1.4308091402053833 255 255 255
6.709843158721924 1.0802547931671143 -1.4596997499465942 255 255 255
6.7790045738220215 1.035538673400879 -1.3398107290267944 255 255 255
6.753758430480957 1.066706657409668 -1.4142744541168213 255 255 255
6.608780384063721 1.1354684829711914 -1.4272544384002686 255 255 255
6.646756172180176 1.0806117057800293 -1.3766449689865112 255 255 255
6.665943145751953 1.1166133880615234 -1.3579977750778198 255 255 255
6.686442852020264 1.1183395385742188 -1.3907723426818848 255 255 255
6.916517734527588 1.191811442375183 -1.4560775756835938 255 255 255
6.704421520233154 1.2789411544799805 -1.3523861169815063 255 255 255
6.597045421600342 1.1718153953552246 -1.4053901433944702 255 255 255
6.592904567718506 1.2327508926391602 -1.3967571258544922 255 255 255
6.519445896148682 1.1373786926269531 -1.36676824092865 255 255 255
6.519862174987793 1.27620267868042 -1.3808943033218384 255 255 255
6.512537479400635 1.2620196342468262 -1.4101545810699463 255 255 255
6.481266021728516 1.1827269792556763 -1.3801769018173218 255 255 255
6.4551520347595215 1.2663650512695312 -1.335176944732666 255 255 255
6.571291446685791 1.3233753442764282 -1.315095067024231 255 255 255
6.481593132019043 1.301640510559082 -1.3440191745758057 255 255 255
6.542932510375977 1.40457284450531 -1.3129827976226807 255 255 255
6.43520975112915 1.3786671161651611 -1.3043956756591797 255 255 255
6.45181131362915 1.415062665939331 -1.3158124685287476 255 255 255
6.442765235900879 1.4465631246566772 -1.3208516836166382 255 255 255
6.4202752113342285 1.4307411909103394 -1.4203944206237793 255 255 255
6.447398662567139 1.3985556364059448 -1.3690874576568604 255 255 255
6.488579750061035 1.437583088874817 -1.390623927116394 255 255 255
6.297875881195068 1.3495564460754395 -1.360599160194397 255 255 255
6.325834274291992 1.515657901763916 -1.3478853702545166 255 255 255
6.333953380584717 1.4379521608352661 -1.3756823539733887 255 255 255
6.4185791015625 1.5531775951385498 -1.4001740217208862 255 255 255
6.341488838195801 1.5658634901046753 -1.4102303981781006 255 255 255
6.422220230102539 1.5011749267578125 -1.2926194667816162 255 255 255
6.438275337219238 1.6204149723052979 -1.43821120262146 255 255 255
6.365634441375732 1.5628206729888916 -1.320944905281067 255 255 255
6.327772617340088 1.6823817491531372 -1.4029181003570557 255 255 255
6.424220085144043 1.685515284538269 -1.3529160022735596 255 255 255
6.3965983390808105 1.6746519804000854 -1.3514803647994995 255 255 255
6.482329368591309 1.700470209121704 -1.2647716999053955 255 255 255
6.4881591796875 1.760275959968567 -1.4064332246780396 255 255 255
6.383014678955078 1.74101984500885 -1.3406190872192383 255 255 255
6.9791460037231445 2.0111756324768066 -1.5381293296813965 255 255 255
7.086408615112305 2.088805675506592 -1.5754494667053223 255 255 255
7.123074531555176 2.0254852771759033 -1.5688291788101196 255 255 255
7.284127235412598 2.0678014755249023 -1.5067131519317627 255 255 255
7.208868026733398 2.048985242843628 -1.4626065492630005 255 255 255
7.0961408615112305 2.0242652893066406 -1.6215733289718628 255 255 255
7.102607250213623 2.1608564853668213 -1.5255426168441772 255 255 255
7.116114616394043 2.1360838413238525 -1.5596234798431396 255 255 255
7.064727783203125 2.1303551197052 -1.5944691896438599 255 255 255
7.121681213378906 2.1563637256622314 -1.5212808847427368 255 255 255
7.074254512786865 2.1711745262145996 -1.4726675748825073 255 255 255
7.055698394775391 2.210928440093994 -1.5148178339004517 255 255 255
7.0191168785095215 2.1362249851226807 -1.5257415771484375 255 255 255
7.006078720092773 2.26572847366333 -1.5874866247177124 255 255 255
7.058078289031982 2.3299667835235596 -1.598298192024231 255 255 255
7.000598907470703 2.2838380336761475 -1.4593292474746704 255 255 255
6.893313407897949 2.3008992671966553 -1.4507417678833008 255 255 255
5.192257881164551 1.747998833656311 -1.0227488279342651 255 255 255
5.1931610107421875 1.6698249578475952 -1.0601750612258911 255 255 255
5.165101528167725 1.7301979064941406 -1.04837167263031 255 255 255
5.1153154373168945 1.7341945171356201 -1.1928976774215698 255 255 255
4.983915328979492 1.7302260398864746 -1.106408715248108 255 255 255
5.055996894836426 1.7192506790161133 -1.033638596534729 255 255 255
5.022992134094238 1.7761170864105225 -1.0588467121124268 255 255 255
5.090796947479248 1.8626443147659302 -1.0818268060684204 255 255 255
5.136325836181641 1.8353123664855957 -1.0580174922943115 255 255 255
5.168953895568848 1.8607118129730225 -1.049929141998291 255 255 255
4.871406555175781 1.7931452989578247 -1.0079172849655151 255 255 255
4.75275182723999 1.8750314712524414 -1.0574817657470703 255 255 255
4.663331031799316 1.826327919960022 -0.9535262584686279 255 255 255
4.72281551361084 1.731763243675232 -0.9938509464263916 255 255 255
4.70534610748291 1.7478294372558594 -0.9848394393920898 255 255 255
4.666286945343018 1.8129040002822876 -1.0051329135894775 255 255 255
4.72835636138916 1.7227506637573242 -0.8911160826683044 255 255 255
4.685497283935547 1.8592512607574463 -0.9827136993408203 255 255 255
4.569097995758057 1.7631707191467285 -1.0020262002944946 255 255 255
4.573993682861328 1.6994017362594604 -0.9409261345863342 255 255 255
4.624249458312988 1.8152105808258057 -0.9346018433570862 255 255 255
4.575359344482422 1.8520607948303223 -0.9996280670166016 255 255 255
4.585201740264893 1.8011394739151 -1.0255447626113892 255 255 255
4.508637428283691 1.8754535913467407 -0.9574843645095825 255 255 255
4.436912536621094 1.8810945749282837 -0.9143443703651428 255 255 255
4.643487930297852 1.8428285121917725 -0.9959306120872498 255 255 255
4.537057876586914 1.8322632312774658 -0.9590408802032471 255 255 255
4.377716064453125 1.7405285835266113 -0.9575148224830627 255 255 255
4.522725582122803 1.8992435932159424 -1.0035579204559326 255 255 255
4.377722263336182 1.8607286214828491 -0.9169835448265076 255 255 255
4.3398566246032715 1.9456148147583008 -0.9230581521987915 255 255 255
4.375614166259766 1.9109236001968384 -0.9329013824462891 255 255 255
4.396746635437012 1.9166829586029053 -0.932844877243042 255 255 255
4.357046604156494 1.8888887166976929 -0.9717984199523926 255 255 255
4.322981357574463 1.9819705486297607 -0.917128324508667 255 255 255
4.383363723754883 1.9961782693862915 -0.857205867767334 255 255 255
4.225982666015625 1.9349989891052246 -0.8569855093955994 255 255 255
4.196265697479248 1.9775766134262085 -1.026179313659668 255 255 255
4.241248607635498 1.9560014009475708 -0.8343531489372253 255 255 255
4.125168323516846 1.946848750114441 -0.9174182415008545 255 255 255
4.236181735992432 1.9385054111480713 -1.0108294486999512 255 255 255
4.157885551452637 2.0470621585845947 -0.8573696613311768 255 255 255
4.109277725219727 1.8838744163513184 -0.9073181748390198 255 255 255
4.042691707611084 1.9245052337646484 -0.8429679274559021 255 255 255
4.162590503692627 1.9625262022018433 -0.9350851774215698 255 255 255
4.076118469238281 1.9346987009048462 -0.7909303307533264 255 255 255
3.9291634559631348 1.951962947845459 -0.9485281705856323 255 255 255
4.0058369636535645 2.144458770751953 -0.8310067057609558 255 255 255
4.082681655883789 1.9837902784347534 -0.9081481695175171 255 255 255
4.039961814880371 1.9668084383010864 -0.9799228310585022 255 255 255
3.926898956298828 2.022475242614746 -0.9092204570770264 255 255 255
3.9611191749572754 1.9795925617218018 -0.9340158104896545 255 255 255
3.893486738204956 1.9936443567276 -0.8664988875389099 255 255 255
3.9806010723114014 2.0064003467559814 -0.7803982496261597 255 255 255
3.961557388305664 2.0492310523986816 -0.8002495765686035 255 255 255
3.9965052604675293 2.0010228157043457 -0.8747679591178894 255 255 255
3.8934719562530518 1.9665906429290771 -0.8193667531013489 255 255 255
3.8849658966064453 1.9907598495483398 -0.8139919638633728 255 255 255
3.8235864639282227 2.000288724899292 -0.9030823707580566 255 255 255
3.8417775630950928 2.0998613834381104 -0.9063435196876526 255 255 255
3.842905044555664 2.0748984813690186 -0.8439075946807861 255 255 255
3.8528285026550293 2.0477919578552246 -0.8451076149940491 255 255 255
3.6973235607147217 2.0785133838653564 -0.8152912855148315 255 255 255
3.766399621963501 2.074782133102417 -0.8621092438697815 255 255 255
3.7943758964538574 2.0630886554718018 -0.8717561364173889 255 255 255
3.662113904953003 2.1157376766204834 -0.815907895565033 255 255 255
3.6851134300231934 2.1152286529541016 -0.8670738935470581 255 255 255
3.576242685317993 2.1559667587280273 -0.866737425327301 255 255 255
3.647883415222168 2.0555570125579834 -0.8065248727798462 255 255 255
3.7076568603515625 2.1166698932647705 -0.8530929684638977 255 255 255
3.6043121814727783 2.0517120361328125 -0.8433602452278137 255 255 255
3.4846982955932617 1.9801760911941528 -0.8342940807342529 255 255 255
3.6130621433258057 2.063556671142578 -0.8689661026000977 255 255 255
3.5693092346191406 2.115647315979004 -0.7603589296340942 255 255 255
3.5637829303741455 2.0334320068359375 -0.7329550385475159 255 255 255
3.530644416809082 2.064230442047119 -0.761052131652832 255 255 255
3.543957471847534 2.1254022121429443 -0.7459176182746887 255 255 255
3.4774293899536133 2.1968047618865967 -0.7396138310432434 255 255 255
3.4982845783233643 2.210991144180298 -0.8453111052513123 255 255 255
3.464507818222046 2.1849358081817627 -0.8264405131340027 255 255 255
3.445042371749878 2.077237606048584 -0.8087083697319031 255 255 255
3.502815008163452 2.145638942718506 -0.8408633470535278 255 255 255
3.4493112564086914 2.229386568069458 -0.7225121259689331 255 255 255
3.4070029258728027 2.169454574584961 -0.6721484661102295 255 255 255
3.5319571495056152 2.1404833793640137 -0.6912476420402527 255 255 255
3.3739051818847656 2.2482242584228516 -0.8324147462844849 255 255 255
3.378889799118042 2.1158125400543213 -0.7749720215797424 255 255 255
3.422090768814087 2.257728099822998 -0.827562689781189 255 255 255
3.415726900100708 2.1153411865234375 -0.7429925203323364 255 255 255
3.2920024394989014 2.246877670288086 -0.7556161284446716 255 255 255
3.4134738445281982 2.1830179691314697 -0.790159285068512 255 255 255
3.342724084854126 2.177370071411133 -0.7593799829483032 255 255 255
3.335214614868164 2.207831382751465 -0.7394675016403198 255 255 255
3.3289756774902344 2.2172322273254395 -0.7868234515190125 255 255 255
3.2597644329071045 2.199633836746216 -0.742169976234436 255 255 255
3.293778419494629 2.1977763175964355 -0.7519059777259827 255 255 255
3.2526252269744873 2.1668894290924072 -0.7017551064491272 255 255 255
3.2699179649353027 2.2838194370269775 -0.6933588981628418 255 255 255
3.224560260772705 2.18041729927063 -0.767208993434906 255 255 255
3.1948482990264893 2.23738694190979 -0.7878960371017456 255 255 255
3.1165640354156494 2.299349784851074 -0.7526383399963379 255 255 255
3.1986758708953857 2.270439386367798 -0.6995136737823486 255 255 255
3.219346046447754 2.305567979812622 -0.7240659594535828 255 255 255
3.152632474899292 2.3484575748443604 -0.7645328640937805 255 255 255
3.192675828933716 2.2880609035491943 -0.7097976207733154 255 255 255
3.0858724117279053 2.318178176879883 -0.6781480312347412 255 255 255
3.1377809047698975 2.208771228790283 -0.6977874636650085 255 255 255
3.0984606742858887 2.3460628986358643 -0.8223337531089783 255 255 255
3.043226957321167 2.2835724353790283 -0.7417596578598022 255 255 255
3.0360357761383057 2.323812246322632 -0.761601448059082 255 255 255
3.1116819381713867 2.287689208984375 -0.6833099722862244 255 255 255
3.0677456855773926 2.372396469116211 -0.8014305233955383 255 255 255
3.145393133163452 2.2795965671539307 -0.7040594816207886 255 255 255
3.020848512649536 2.318014621734619 -0.8090250492095947 255 255 255
3.068938970565796 2.2635486125946045 -0.673965573310852 255 255 255
3.1007745265960693 2.257427215576172 -0.6624261736869812 255 255 255
2.9775946140289307 2.4027979373931885 -0.7570602893829346 255 255 255
2.9984874725341797 2.411694288253784 -0.7978461980819702 255 255 255
3.0010340213775635 2.3715481758117676 -0.6565536260604858 255 255 255
3.049665689468384 2.3178906440734863 -0.8088127374649048 255 255 255
2.9643170833587646 2.3485376834869385 -0.7306229472160339 255 255 255
2.957559823989868 2.4262003898620605 -0.676289439201355 255 255 255
3.01753306388855 2.410170793533325 -0.6770073175430298 255 255 255
2.9444332122802734 2.3792777061462402 -0.707044780254364 255 255 255
2.951911687850952 2.3506245613098145 -0.7366294264793396 255 255 255
2.837700843811035 2.361372709274292 -0.7469881772994995 255 255 255
2.951598882675171 2.3469581604003906 -0.6917607188224792 255 255 255
5.110529899597168 -3.8357534408569336 -1.2969541549682617 255 255 255
4.966061115264893 -3.845430612564087 -1.3416610956192017 255 255 255
5.105314254760742 -3.81998872756958 -1.2376928329467773 255 255 255
4.985159397125244 -3.7557122707366943 -1.342011570930481 255 255 255
5.085632801055908 -3.6753616333007812 -1.246923804283142 255 255 255
5.114796161651611 -3.8044440746307373 -1.2358589172363281 255 255 255
4.95289945602417 -3.64359974861145 -1.3122466802597046 255 255 255
5.084108829498291 -3.7147531509399414 -1.2818715572357178 255 255 255
4.967559814453125 -3.637364625930786 -1.2777190208435059 255 255 255
5.0864129066467285 -3.702322006225586 -1.257204532623291 255 255 255
4.996807098388672 -3.5490825176239014 -1.1581475734710693 255 255 255
5.134031772613525 -3.582064151763916 -1.3234957456588745 255 255 255
5.040611743927002 -3.5911474227905273 -1.3442862033843994 255 255 255
5.081612586975098 -3.5759336948394775 -1.262708306312561 255 255 255
5.191490173339844 -3.5862929821014404 -1.2792619466781616 255 255 255
5.034358024597168 -3.605353832244873 -1.1941111087799072 255 255 255
5.118539810180664 -3.609510898590088 -1.1463117599487305 255 255 255
5.202093124389648 -3.562558174133301 -1.285981297492981 255 255 255
5.1012678146362305 -3.633683919906616 -1.2282274961471558 255 255 255
5.1293134689331055 -3.4723598957061768 -1.2255191802978516 255 255 255
5.171651363372803 -3.4491443634033203 -1.2975937128067017 255 255 255
5.146107196807861 -3.5090107917785645 -1.217328667640686 255 255 255
5.149123668670654 -3.477879285812378 -1.1678396463394165 255 255 255
5.2097063064575195 -3.4412710666656494 -1.237849473953247 255 255 255
5.201352596282959 -3.5213918685913086 -1.2314332723617554 255 255 255
5.1491265296936035 -3.3860771656036377 -1.3423563241958618 255 255 255
5.147063255310059 -3.318258285522461 -1.1971840858459473 255 255 255
5.146476745605469 -3.4854838848114014 -1.3314757347106934 255 255 255
5.179794788360596 -3.357848644256592 -1.2167528867721558 255 255 255
5.17582893371582 -3.4362103939056396 -1.1572065353393555 255 255 255
5.1899027824401855 -3.261749267578125 -1.1932607889175415 255 255 255
5.155651092529297 -3.276496171951294 -1.252604603767395 255 255 255
5.1754279136657715 -3.2236011028289795 -1.2551871538162231 255 255 255
5.258038520812988 -3.244798421859741 -1.1972161531448364 255 255 255
5.133708477020264 -3.1811575889587402 -1.186740517616272 255 255 255
5.2763566970825195 -3.2166664600372314 -1.2134630680084229 255 255 255
5.1897783279418945 -3.209362268447876 -1.226081371307373 255 255 255
5.189970016479492 -3.2203712463378906 -1.25250244140625 255 255 255
5.190748691558838 -3.08349609375 -1.2924776077270508 255 255 255
5.1664252281188965 -3.180471897125244 -1.2756986618041992 255 255 255
5.213088512420654 -3.1983258724212646 -1.2318860292434692 255 255 255
5.231286525726318 -3.1278879642486572 -1.2064746618270874 255 255 255
5.223586082458496 -2.992084264755249 -1.1835538148880005 255 255 255
5.270969867706299 -3.020663022994995 -1.180067777633667 255 255 255
5.245619773864746 -3.0177533626556396 -1.1054017543792725 255 255 255
5.270505428314209 -2.939098596572876 -1.2072540521621704 255 255 255
5.3042683601379395 -2.9132018089294434 -1.3268316984176636 255 255 255
5.235206127166748 -2.941697597503662 -1.1905651092529297 255 255 255
5.231624603271484 -3.0440032482147217 -1.2361079454421997 255 255 255
5.177494525909424 -2.9665889739990234 -1.2555274963378906 255 255 255
5.301272869110107 -2.988461494445801 -1.2221698760986328 255 255 255
5.316794395446777 -2.917790651321411 -1.220755934715271 255 255 255
5.258162021636963 -2.9660089015960693 -1.1777938604354858 255 255 255
5.3202409744262695 -2.868985652923584 -1.2349278926849365 255 255 255
5.224644660949707 -2.9083943367004395 -1.237733006477356 255 255 255
5.2921271324157715 -2.854259490966797 -1.1027809381484985 255 255 255
5.297286033630371 -2.8197221755981445 -1.1915699243545532 255 255 255
5.365840911865234 -2.829120397567749 -1.23136568069458 255 255 255
5.3923773765563965 -2.9965410232543945 -1.2080368995666504 255 255 255
5.398585796356201 -2.8095366954803467 -1.1502052545547485 255 255 255
5.389325141906738 -2.7174794673919678 -1.154752254486084 255 255 255
5.365658283233643 -2.7769675254821777 -1.2123584747314453 255 255 255
5.33768892288208 -2.818603515625 -1.2387161254882812 255 255 255
5.356481075286865 -2.7639124393463135 -1.247179627418518 255 255 255
5.359044075012207 -2.654890775680542 -1.2354804277420044 255 255 255
5.41513729095459 -2.635077714920044 -1.2045714855194092 255 255 255
5.3335747718811035 -2.625458240509033 -1.2098395824432373 255 255 255
5.650041580200195 -2.7152838706970215 -1.2155674695968628 255 255 255
5.805843830108643 -2.7605199813842773 -1.3071914911270142 255 255 255
5.829355716705322 -2.7484664916992188 -1.3775520324707031 255 255 255
6.109781742095947 -2.797600746154785 -1.401967167854309 255 255 255
6.0957865715026855 -2.8734049797058105 -1.3962154388427734 255 255 255
6.123925685882568 -2.876918315887451 -1.3548088073730469 255 255 255
7.171180248260498 -3.3861725330352783 -1.6721757650375366 255 255 255
6.5288472175598145 -2.9441463947296143 -1.4233884811401367 255 255 255
7.80984354019165 -3.6099908351898193 -1.737111210823059 255 255 255
7.773829936981201 -3.498368978500366 -1.7752182483673096 255 255 255
7.675881862640381 -3.5569636821746826 -1.748044729232788 255 255 255
7.709336280822754 -3.5538902282714844 -1.7767400741577148 255 255 255
7.728023529052734 -3.38728928565979 -1.7215967178344727 255 255 255
7.818455696105957 -3.271127462387085 -1.7390778064727783 255 255 255
7.829768180847168 -3.4958126544952393 -1.7662404775619507 255 255 255
7.8220648765563965 -3.3645880222320557 -1.7583154439926147 255 255 255
7.861551284790039 -3.306763172149658 -1.7991114854812622 255 255 255
7.762727737426758 -3.244600534439087 -1.7673583030700684 255 255 255
7.820296287536621 -3.2648091316223145 -1.7746890783309937 255 255 255
7.811238765716553 -3.2023985385894775 -1.8455320596694946 255 255 255
7.778078079223633 -3.177436590194702 -1.7195188999176025 255 255 255
7.7842583656311035 -3.173701763153076 -1.7581596374511719 255 255 255
7.861927032470703 -3.166475534439087 -1.6561020612716675 255 255 255
7.924965858459473 -3.2384934425354004 -1.8329851627349854 255 255 255
7.8685078620910645 -3.143998146057129 -1.7253334522247314 255 255 255
7.886679172515869 -3.124077081680298 -1.7390588521957397 255 255 255
7.841449737548828 -3.0941193103790283 -1.7477521896362305 255 255 255
7.872633934020996 -3.06819748878479 -1.727331280708313 255 255 255
7.896583557128906 -3.125913381576538 -1.779090404510498 255 255 255
7.866089344024658 -2.989428758621216 -1.7248075008392334 255 255 255
7.854842185974121 -3.0098390579223633 -1.7171462774276733 255 255 255
7.887013912200928 -2.933619976043701 -1.7676101922988892 255 255 255
7.897714614868164 -3.007694721221924 -1.838602900505066 255 255 255
7.958794593811035 -2.83382511138916 -1.776932716369629 255 255 255
7.965545177459717 -2.923288583755493 -1.7633823156356812 255 255 255
7.8720784187316895 -2.833083391189575 -1.7564069032669067 255 255 255
7.854955673217773 -2.820625066757202 -1.8217685222625732 255 255 255
7.942712783813477 -2.869166135787964 -1.7866438627243042 255 255 255
7.8951520919799805 -2.78902268409729 -1.805378794670105 255 255 255
7.871684551239014 -2.7536375522613525 -1.739913821220398 255 255 255
7.928289413452148 -2.6973068714141846 -1.683603048324585 255 255 255
7.9014129638671875 -2.674189329147339 -1.804843783378601 255 255 255
7.8869524002075195 -2.602163553237915 -1.7104041576385498 255 255 255
7.831335544586182 -2.693781614303589 -1.6989797353744507 255 255 255
7.896448612213135 -2.610560178756714 -1.8039814233779907 255 255 255
7.9118218421936035 -2.616753339767456 -1.7411253452301025 255 255 255
7.938031196594238 -2.649930477142334 -1.7045347690582275 255 255 255
7.8556809425354 -2.561535596847534 -1.8074991703033447 255 255 255
7.875866889953613 -2.5486977100372314 -1.7630813121795654 255 255 255
7.981276988983154 -2.5067498683929443 -1.7235617637634277 255 255 255
7.925365924835205 -2.4668781757354736 -1.6629637479782104 255 255 255
7.96193790435791 -2.3967692852020264 -1.7608669996261597 255 255 255
8.021563529968262 -2.472959041595459 -1.821828842163086 255 255 255
8.031449317932129 -2.4633290767669678 -1.7241278886795044 255 255 255
7.958795547485352 -2.441138744354248 -1.8055224418640137 255 255 255
7.9965739250183105 -2.3987324237823486 -1.7763330936431885 255 255 255
7.911759376525879 -2.349999189376831 -1.773698091506958 255 255 255
7.969477653503418 -2.290644645690918 -1.7174886465072632 255 255 255
8.096016883850098 -2.3077425956726074 -1.6510635614395142 255 255 255
8.016936302185059 -2.285853385925293 -1.7077744007110596 255 255 255
8.022344589233398 -2.246497631072998 -1.6666368246078491 255 255 255
8.016407012939453 -2.2640037536621094 -1.6979103088378906 255 255 255
8.05112075805664 -2.2272908687591553 -1.787805199623108 255 255 255
8.064228057861328 -2.1529181003570557 -1.657698154449463 255 255 255
8.032827377319336 -2.1245548725128174 -1.750815987586975 255 255 255
7.976837635040283 -2.1357975006103516 -1.7278330326080322 255 255 255
8.0615816116333 -2.066291570663452 -1.6943730115890503 255 255 255
8.01177978515625 -2.101414203643799 -1.7218542098999023 255 255 255
8.031758308410645 -2.0270185470581055 -1.7220654487609863 255 255 255
8.113447189331055 -2.02799391746521 -1.752656102180481 255 255 255
7.987486839294434 -1.988709807395935 -1.7169424295425415 255 255 255
8.05251693725586 -2.0643370151519775 -1.7678669691085815 255 255 255
8.012307167053223 -1.8960976600646973 -1.728654146194458 255 255 255
8.025758743286133 -1.8709949254989624 -1.6579185724258423 255 255 255
8.026744842529297 -1.9630693197250366 -1.692091464996338 255 255 255
7.975831985473633 -1.8248438835144043 -1.594414472579956 255 255 255
7.9706830978393555 -1.8035380840301514 -1.6977936029434204 255 255 255
8.075346946716309 -1.86802077293396 -1.7040984630584717 255 255 255
8.071012496948242 -1.7484556436538696 -1.7462968826293945 255 255 255
8.030983924865723 -1.8273628950119019 -1.6423251628875732 255 255 255
8.023180961608887 -1.7485586404800415 -1.7168916463851929 255 255 255
8.059850692749023 -1.6578505039215088 -1.6541293859481812 255 255 255
8.06516170501709 -1.7397547960281372 -1.7372207641601562 255 255 255
8.041603088378906 -1.7226917743682861 -1.651763677597046 255 255 255
7.919739723205566 -1.6297425031661987 -1.6698895692825317 255 255 255
8.006704330444336 -1.6345669031143188 -1.7025487422943115 255 255 255
8.059248924255371 -1.6054363250732422 -1.7144914865493774 255 255 255
8.04349136352539 -1.569137692451477 -1.7730047702789307 255 255 255
7.984631538391113 -1.5608397722244263 -1.7903850078582764 255 255 255
8.054595947265625 -1.5737791061401367 -1.624895691871643 255 255 255
8.002968788146973 -1.4870303869247437 -1.7681858539581299 255 255 255
7.949129104614258 -1.5274417400360107 -1.643113613128662 255 255 255
8.033858299255371 -1.4388926029205322 -1.7486727237701416 255 255 255
8.092899322509766 -1.412750482559204 -1.649658441543579 255 255 255
8.076714515686035 -1.428329348564148 -1.7461918592453003 255 255 255
8.050498008728027 -1.410880208015442 -1.7442207336425781 255 255 255
7.984435558319092 -1.290265679359436 -1.771860122680664 255 255 255
8.043085098266602 -1.3428179025650024 -1.7358226776123047 255 255 255
8.034537315368652 -1.3655356168746948 -1.7246768474578857 255 255 255
8.100761413574219 -1.2458603382110596 -1.7103630304336548 255 255 255
8.068328857421875 -1.2616113424301147 -1.7556772232055664 255 255 255
8.10981273651123 -1.3422890901565552 -1.7739771604537964 255 255 255
8.018667221069336 -1.1884139776229858 -1.7094871997833252 255 255 255
8.017838478088379 -1.1877542734146118 -1.7165350914001465 255 255 255
8.116065979003906 -1.2085119485855103 -1.7737033367156982 255 255 255
8.025278091430664 -1.2414013147354126 -1.645637035369873 255 255 255
8.051410675048828 -1.1239267587661743 -1.7157728672027588 255 255 255
8.104310035705566 -1.1050701141357422 -1.6669458150863647 255 255 255
8.052974700927734 -1.108755111694336 -1.6098031997680664 255 255 255
7.991589546203613 -1.016445517539978 -1.7694013118743896 255 255 255
7.997494220733643 -1.027962565422058 -1.681682825088501 255 255 255
8.018328666687012 -1.030895709991455 -1.67393958568573 255 255 255
8.094254493713379 -0.9578760266304016 -1.6020934581756592 255 255 255
7.999460220336914 -0.9188336730003357 -1.6956356763839722 255 255 255
8.060820579528809 -0.9244641661643982 -1.7309521436691284 255 255 255
7.949182987213135 -0.9759949445724487 -1.630375862121582 255 255 255
7.961339950561523 -0.8179486989974976 -1.5791009664535522 255 255 255
8.04082202911377 -0.8603320717811584 -1.6759847402572632 255 255 255
8.000564575195312 -0.7771000862121582 -1.7087574005126953 255 255 255
8.028937339782715 -0.8064689040184021 -1.6468274593353271 255 255 255
7.998488903045654 -0.8055340051651001 -1.7596839666366577 255 255 255
8.061383247375488 -0.8390594720840454 -1.616402268409729 255 255 255
8.001131057739258 -0.7405364513397217 -1.6078993082046509 255 255 255
8.100225448608398 -0.6972780227661133 -1.7222830057144165 255 255 255
7.933013916015625 -0.6374001502990723 -1.7678711414337158 255 255 255
8.08653736114502 -0.6811515092849731 -1.6899622678756714 255 255 255
8.003440856933594 -0.6693823337554932 -1.6343693733215332 255 255 255
7.992754936218262 -0.6284250617027283 -1.6867777109146118 255 255 255
8.006416320800781 -0.6369137763977051 -1.6661089658737183 255 255 255
8.075080871582031 -0.5633496642112732 -1.616145133972168 255 255 255
7.976383686065674 -0.5386258363723755 -1.7080814838409424 255 255 255
8.034672737121582 -0.5790782570838928 -1.6032217741012573 255 255 255
8.053950309753418 -0.553334653377533 -1.7367409467697144 255 255 255
8.035515785217285 -0.5340712666511536 -1.7001638412475586 255 255 255
8.089581489562988 -0.5144105553627014 -1.741125464439392 255 255 255
8.041586875915527 -0.4576399326324463 -1.705238938331604 255 255 255
7.999359607696533 -0.4892151355743408 -1.6589430570602417 255 255 255
8.013473510742188 -0.37217170000076294 -1.6076126098632812 255 255 255
7.9141845703125 -0.47606977820396423 -1.64506995677948 255 255 255
7.918160438537598 -0.37247052788734436 -1.7065627574920654 255 255 255
7.956027030944824 -0.3745119869709015 -1.6244150400161743 255 255 255
8.058671951293945 -0.26955294609069824 -1.665374517440796 255 255 255
7.966701507568359 -0.30612680315971375 -1.630639910697937 255 255 255
7.946725368499756 -0.32493454217910767 -1.7199522256851196 255 255 255
7.9500226974487305 -0.21234747767448425 -1.5788319110870361 255 255 255
8.044570922851562 -0.21869128942489624 -1.6418771743774414 255 255 255
7.947366237640381 -0.06860426813364029 -1.5705344676971436 255 255 255
7.972160816192627 -0.15994329750537872 -1.7097800970077515 255 255 255
7.993522644042969 -0.1088382825255394 -1.6102371215820312 255 255 255
7.949000358581543 -0.09847375750541687 -1.5955325365066528 255 255 255
7.99360466003418 -0.11750327795743942 -1.5319589376449585 255 255 255
8.009199142456055 -0.12062009423971176 -1.7454171180725098 255 255 255
8.054469108581543 -0.004081257618963718 -1.6797192096710205 255 255 255
7.840656280517578 -0.022297807037830353 -1.6484644412994385 255 255 255
7.9588751792907715 -0.07007898390293121 -1.6917130947113037 255 255 255
7.930456161499023 0.015453343279659748 -1.6492785215377808 255 255 255
7.998791694641113 0.04549744725227356 -1.6621050834655762 255 255 255
7.936227798461914 -0.015149153769016266 -1.6166707277297974 255 255 255
7.872747898101807 -0.04036426544189453 -1.637030839920044 255 255 255
7.866981506347656 0.11762624233961105 -1.6311569213867188 255 255 255
7.962466239929199 0.16432708501815796 -1.594835638999939 255 255 255
7.827692985534668 0.23067845404148102 -1.677322506904602 255 255 255
7.885668754577637 0.12939830124378204 -1.5552830696105957 255 255 255
7.686735153198242 0.13324694335460663 -1.6162797212600708 255 255 255
7.607618808746338 0.1695401519536972 -1.5685327053070068 255 255 255
7.656875133514404 0.23149771988391876 -1.6196497678756714 255 255 255
7.599217414855957 0.30235573649406433 -1.704800009727478 255 255 255
7.631190776824951 0.3482211232185364 -1.6660035848617554 255 255 255
7.588048458099365 0.2422482818365097 -1.6975458860397339 255 255 255
7.5807647705078125 0.28919824957847595 -1.6184618473052979 255 255 255
7.573505878448486 0.346284955739975 -1.6091197729110718 255 255 255
7.579769134521484 0.33670929074287415 -1.6878937482833862 255 255 255
7.548336505889893 0.3818027377128601 -1.739028811454773 255 255 255
7.606730937957764 0.4615781903266907 -1.6158586740493774 255 255 255
7.583650588989258 0.43291035294532776 -1.6978200674057007 255 255 255
7.595845699310303 0.4486404359340668 -1.7297497987747192 255 255 255
7.608131408691406 0.4763140380382538 -1.6288988590240479 255 255 255
7.63849401473999 0.5225225687026978 -1.668014645576477 255 255 255
7.586005687713623 0.4673673212528229 -1.7635020017623901 255 255 255
7.5935540199279785 0.5799174904823303 -1.604773998260498 255 255 255
7.570732116699219 0.46978670358657837 -1.6447429656982422 255 255 255
