ply
format ascii 1.0
element vertex 703
property float x
property float y
property float z
property uchar red
property uchar green
property uchar blue
end_header
62.56999969482422 -10.76200008392334 1.9529999494552612 255 255 255
62.27799987792969 -10.510000228881836 1.944000005722046 255 255 255
60.757999420166016 -10.154999732971191 1.9010000228881836 255 255 255
59.630001068115234 -9.77299976348877 1.86899995803833 255 255 255
58.178001403808594 -9.347000122070312 1.8279999494552612 255 255 255
57.41699981689453 -9.038999557495117 1.805999994277954 255 255 255
56.96699905395508 -8.78499984741211 1.7920000553131104 255 255 255
55.518001556396484 -8.381999969482422 1.7510000467300415 255 255 255
54.93299865722656 -8.116999626159668 1.7339999675750732 255 255 255
54.08300018310547 -7.9039998054504395 1.7109999656677246 255 255 255
54.099998474121094 -7.732999801635742 1.7100000381469727 255 255 255
54.15399932861328 -7.567999839782715 1.7109999656677246 255 255 255
54.21699905395508 -7.4029998779296875 1.7120000123977661 255 255 255
54.262001037597656 -7.235000133514404 1.7130000591278076 255 255 255
54.30400085449219 -7.067999839782715 1.7130000591278076 255 255 255
54.38100051879883 -6.9039998054504395 1.715000033378601 255 255 255
54.43000030517578 -6.822999954223633 1.715999960899353 255 255 255
54.512001037597656 -6.659999847412109 1.718000054359436 255 255 255
54.38199996948242 -6.46999979019165 1.7130000591278076 255 255 255
54.525001525878906 -6.314000129699707 1.7170000076293945 255 255 255
54.60499954223633 -6.14900016784668 1.718999981880188 255 255 255
54.64899826049805 -5.980999946594238 1.718999981880188 255 255 255
44.98500061035156 -4.775000095367432 1.4520000219345093 255 255 255
44.51300048828125 -4.6539998054504395 1.437999963760376 255 255 255
43.96200180053711 -4.456999778747559 1.4229999780654907 255 255 255
43.52299880981445 -4.27400016784668 1.409999966621399 255 255 255
43.5260009765625 -4.136000156402588 1.409999966621399 255 255 255
43.52299880981445 -3.997999906539917 1.409999966621399 255 255 255
41.858001708984375 -3.7109999656677246 1.3630000352859497 255 255 255
41.391998291015625 -3.5390000343322754 1.350000023841858 255 255 255
35.12799835205078 -2.944000005722046 1.1770000457763672 255 255 255
34.99599838256836 -2.822000026702881 1.1729999780654907 255 255 255
34.95000076293945 -2.7079999446868896 1.1720000505447388 255 255 255
34.83700180053711 -2.5889999866485596 1.1690000295639038 255 255 255
23.115999221801758 -1.6360000371932983 0.8450000286102295 255 255 255
23.111000061035156 -1.562999963760376 0.8450000286102295 255 255 255
23.149999618530273 -1.4919999837875366 0.8460000157356262 255 255 255
22.944000244140625 -1.4429999589920044 0.8399999737739563 255 255 255
22.934999465942383 -1.3700000047683716 0.8399999737739563 255 255 255
22.45599937438965 -1.2699999809265137 0.8270000219345093 255 255 255
22.639999389648438 -1.2089999914169312 0.8320000171661377 255 255 255
22.486000061035156 -1.1299999952316284 0.8270000219345093 255 255 255
21.61199951171875 -1.0169999599456787 0.8029999732971191 255 255 255
21.638999938964844 -0.949999988079071 0.8040000200271606 255 255 255
21.636999130249023 -0.9160000085830688 0.8040000200271606 255 255 255
21.615999221801758 -0.847000002861023 0.8029999732971191 255 255 255
21.607999801635742 -0.7789999842643738 0.8029999732971191 255 255 255
21.479000091552734 -0.7059999704360962 0.7990000247955322 255 255 255
21.499000549316406 -0.6389999985694885 0.800000011920929 255 255 255
21.451000213623047 -0.5699999928474426 0.7979999780654907 255 255 255
21.50200080871582 -0.5040000081062317 0.800000011920929 255 255 255
21.48699951171875 -0.4699999988079071 0.7990000247955322 255 255 255
21.476999282836914 -0.4020000100135803 0.7990000247955322 255 255 255
21.013999938964844 -0.3269999921321869 0.7860000133514404 255 255 255
20.951000213623047 -0.25999999046325684 0.7839999794960022 255 255 255
20.979999542236328 -0.19499999284744263 0.7850000262260437 255 255 255
20.90999984741211 -0.12800000607967377 0.7829999923706055 255 255 255
20.941999435424805 -0.06300000101327896 0.7839999794960022 255 255 255
20.900999069213867 -0.029999999329447746 0.7829999923706055 255 255 255
21.215999603271484 0.017000000923871994 0.6909999847412109 255 255 255
21.131999969482422 0.05000000074505806 0.6899999976158142 255 255 255
21.097999572753906 0.11599999666213989 0.6890000104904175 255 255 255
21.24799919128418 0.18400000035762787 0.6919999718666077 255 255 255
21.452999114990234 0.2529999911785126 0.6970000267028809 255 255 255
21.351999282836914 0.3190000057220459 0.6949999928474426 255 255 255
21.385000228881836 0.3869999945163727 0.6949999928474426 255 255 255
21.474000930786133 0.4560000002384186 0.6970000267028809 255 255 255
21.32900047302246 0.4860000014305115 0.6940000057220459 255 255 255
21.499000549316406 0.5580000281333923 0.6980000138282776 255 255 255
21.650999069213867 0.6299999952316284 0.7020000219345093 255 255 255
21.04599952697754 0.6779999732971191 0.6880000233650208 255 255 255
20.854999542236328 0.7369999885559082 0.6840000152587891 255 255 255
21.534000396728516 0.8299999833106995 0.6990000009536743 255 255 255
21.341999053955078 0.8889999985694885 0.6949999928474426 255 255 255
21.075000762939453 0.9110000133514404 0.6890000104904175 255 255 255
21.152000427246094 0.9810000061988831 0.6909999847412109 255 255 255
21.093000411987305 1.0440000295639038 0.6890000104904175 255 255 255
21.174999237060547 1.1150000095367432 0.6909999847412109 255 255 255
21.16900062561035 1.1820000410079956 0.6909999847412109 255 255 255
21.316999435424805 1.2569999694824219 0.6949999928474426 255 255 255
21.288999557495117 1.3229999542236328 0.6940000057220459 255 255 255
21.756000518798828 1.3869999647140503 0.7049999833106995 255 255 255
21.91699981689453 1.465999960899353 0.7089999914169312 255 255 255
19.079999923706055 1.3329999446868896 0.6439999938011169 255 255 255
19.076000213623047 1.3930000066757202 0.6439999938011169 255 255 255
19.128000259399414 1.4579999446868896 0.6449999809265137 255 255 255
18.15399932861328 1.4390000104904175 0.6230000257492065 255 255 255
18.1200008392334 1.49399995803833 0.621999979019165 255 255 255
18.093000411987305 1.5490000247955322 0.621999979019165 255 255 255
17.865999221801758 1.5570000410079956 0.6169999837875366 255 255 255
17.618000030517578 1.590999960899353 0.6110000014305115 255 255 255
17.82200050354004 1.6660000085830688 0.6159999966621399 255 255 255
18.382999420166016 1.777999997138977 0.6290000081062317 255 255 255
18.499000549316406 1.8480000495910645 0.6320000290870667 255 255 255
17.902000427246094 1.843999981880188 0.6179999709129333 255 255 255
17.83799934387207 1.8660000562667847 0.6169999837875366 255 255 255
17.84600067138672 1.9240000247955322 0.6169999837875366 255 255 255
17.69700050354004 1.9639999866485596 0.6140000224113464 255 255 255
17.566999435424805 2.005000114440918 0.6110000014305115 255 255 255
17.756999969482422 2.0829999446868896 0.6150000095367432 255 255 255
18.523000717163086 2.2330000400543213 0.6330000162124634 255 255 255
18.14699935913086 2.244999885559082 0.625 255 255 255
17.981000900268555 2.253000020980835 0.6209999918937683 255 255 255
17.78499984741211 2.2850000858306885 0.6169999837875366 255 255 255
17.492000579833984 2.302999973297119 0.6100000143051147 255 255 255
17.43199920654297 2.3510000705718994 0.609000027179718 255 255 255
17.4060001373291 2.4030001163482666 0.6079999804496765 255 255 255
17.322999954223633 2.447000026702881 0.6069999933242798 255 255 255
17.327999114990234 2.503000020980835 0.6069999933242798 255 255 255
17.343000411987305 2.5329999923706055 0.6069999933242798 255 255 255
17.29199981689453 2.5810000896453857 0.6060000061988831 255 255 255
17.46299934387207 2.6630001068115234 0.6110000014305115 255 255 255
17.670000076293945 2.752000093460083 0.6159999966621399 255 255 255
17.652000427246094 2.805999994277954 0.6150000095367432 255 255 255
17.86199951171875 2.8970000743865967 0.6200000047683716 255 255 255
17.367000579833984 2.871999979019165 0.609000027179718 255 255 255
17.55900001525879 2.9609999656677246 0.6140000224113464 255 255 255
17.357999801635742 2.9549999237060547 0.609000027179718 255 255 255
15.244999885559082 2.6410000324249268 0.5609999895095825 255 255 255
15.220999717712402 2.686000108718872 0.5600000023841858 255 255 255
15.17300033569336 2.7269999980926514 0.5590000152587891 255 255 255
15.184000015258789 2.7780001163482666 0.5600000023841858 255 255 255
17.979000091552734 3.3529999256134033 0.625 255 255 255
17.937000274658203 3.4030001163482666 0.6240000128746033 255 255 255
17.941999435424805 3.433000087738037 0.6240000128746033 255 255 255
17.934999465942383 3.490999937057495 0.6240000128746033 255 255 255
18.05900001525879 3.5739998817443848 0.628000020980835 255 255 255
18.10099983215332 3.6410000324249268 0.6290000081062317 255 255 255
18.174999237060547 3.7160000801086426 0.6309999823570251 255 255 255
18.099000930786133 3.759000062942505 0.6290000081062317 255 255 255
18.089000701904297 3.816999912261963 0.6290000081062317 255 255 255
18.17099952697754 3.864000082015991 0.6309999823570251 255 255 255
18.075000762939453 3.9030001163482666 0.6290000081062317 255 255 255
15.12399959564209 3.311000108718872 0.5609999895095825 255 255 255
15.116999626159668 3.3589999675750732 0.5609999895095825 255 255 255
15.258999824523926 3.440999984741211 0.5649999976158142 255 255 255
15.232000350952148 3.4860000610351562 0.5640000104904175 255 255 255
20.256999969482422 4.677999973297119 0.6819999814033508 255 255 255
20.141000747680664 4.7179999351501465 0.6790000200271606 255 255 255
20.03700065612793 4.760000228881836 0.6769999861717224 255 255 255
19.92099952697754 4.797999858856201 0.675000011920929 255 255 255
19.82200050354004 4.840000152587891 0.6729999780654907 255 255 255
19.67099952697754 4.86899995803833 0.6700000166893005 255 255 255
19.573999404907227 4.909999847412109 0.6679999828338623 255 255 255
19.493000030517578 4.921999931335449 0.6660000085830688 255 255 255
19.402000427246094 4.964000225067139 0.6639999747276306 255 255 255
19.30500030517578 5.004000186920166 0.6620000004768372 255 255 255
19.209999084472656 5.043000221252441 0.6610000133514404 255 255 255
19.121999740600586 5.084000110626221 0.6589999794960022 255 255 255
19.023000717163086 5.122000217437744 0.6570000052452087 255 255 255
18.91699981689453 5.1570000648498535 0.6549999713897705 255 255 255
18.820999145507812 5.193999767303467 0.652999997138977 255 255 255
18.743999481201172 5.204999923706055 0.6510000228881836 255 255 255
18.638999938964844 5.238999843597412 0.6489999890327454 255 255 255
13.548999786376953 3.8469998836517334 0.5289999842643738 255 255 255
18.45599937438965 5.311999797821045 0.6460000276565552 255 255 255
18.368000030517578 5.348999977111816 0.6439999938011169 255 255 255
18.27199935913086 5.383999824523926 0.6420000195503235 255 255 255
18.187999725341797 5.421000003814697 0.640999972820282 255 255 255
18.091999053955078 5.422999858856201 0.6380000114440918 255 255 255
18.01099967956543 5.460999965667725 0.6370000243186951 255 255 255
17.922000885009766 5.494999885559082 0.6349999904632568 255 255 255
13.680000305175781 4.235000133514404 0.5339999794960022 255 255 255
17.738000869750977 5.559999942779541 0.6320000290870667 255 255 255
17.652000427246094 5.593999862670898 0.6299999952316284 255 255 255
17.56800079345703 5.627999782562256 0.628000020980835 255 255 255
17.489999771118164 5.633999824523926 0.6269999742507935 255 255 255
17.408000946044922 5.668000221252441 0.625 255 255 255
17.31599998474121 5.697999954223633 0.6230000257492065 255 255 255
17.240999221801758 5.732999801635742 0.621999979019165 255 255 255
17.14699935913086 5.76200008392334 0.6200000047683716 255 255 255
17.084999084472656 5.801000118255615 0.6190000176429749 255 255 255
16.993000030517578 5.828999996185303 0.6169999837875366 255 255 255
10.482999801635742 3.6040000915527344 0.460999995470047 255 255 255
10.435999870300293 3.624000072479248 0.46000000834465027 255 255 255
10.460000038146973 3.6689999103546143 0.460999995470047 255 255 255
10.357999801635742 3.6700000762939453 0.45899999141693115 255 255 255
10.340999603271484 3.700000047683716 0.4580000042915344 255 255 255
9.468999862670898 3.4200000762939453 0.43799999356269836 255 255 255
9.590999603271484 3.4809999465942383 0.4410000145435333 255 255 255
9.536999702453613 3.494999885559082 0.4399999976158142 255 255 255
9.560999870300293 3.5390000343322754 0.4399999976158142 255 255 255
9.668000221252441 3.61299991607666 0.4429999887943268 255 255 255
9.286999702453613 3.503000020980835 0.4339999854564667 255 255 255
9.751999855041504 3.7149999141693115 0.44600000977516174 255 255 255
9.321999549865723 3.5829999446868896 0.4359999895095825 255 255 255
9.302000045776367 3.5920000076293945 0.4350000023841858 255 255 255
9.28499984741211 3.61899995803833 0.4350000023841858 255 255 255
9.267999649047852 3.6459999084472656 0.4350000023841858 255 255 255
9.199000358581543 3.6519999504089355 0.4339999854564667 255 255 255
9.20199966430664 3.687000036239624 0.4339999854564667 255 255 255
9.253000259399414 3.742000102996826 0.4359999895095825 255 255 255
9.263999938964844 3.7799999713897705 0.4359999895095825 255 255 255
9.291000366210938 3.808000087738037 0.43700000643730164 255 255 255
9.322999954223633 3.8559999465942383 0.43799999356269836 255 255 255
9.647000312805176 4.026000022888184 0.44600000977516174 255 255 255
9.446000099182129 3.9769999980926514 0.44200000166893005 255 255 255
9.279000282287598 3.940000057220459 0.43799999356269836 255 255 255
9.312999725341797 3.989000082015991 0.4390000104904175 255 255 255
8.989999771118164 3.884000062942505 0.4309999942779541 255 255 255
8.998000144958496 3.9210000038146973 0.4320000112056732 255 255 255
8.972000122070312 3.9260001182556152 0.4309999942779541 255 255 255
9.0600004196167 3.999000072479248 0.4339999854564667 255 255 255
9.14799976348877 4.072000026702881 0.4359999895095825 255 255 255
9.39900016784668 4.21999979019165 0.4429999887943268 255 255 255
9.062000274658203 4.1020002365112305 0.4350000023841858 255 255 255
9.270999908447266 4.232999801635742 0.4399999976158142 255 255 255
9.305999755859375 4.283999919891357 0.44200000166893005 255 255 255
9.300000190734863 4.298999786376953 0.44200000166893005 255 255 255
9.324000358581543 4.3460001945495605 0.4429999887943268 255 255 255
9.491000175476074 4.460999965667725 0.44699999690055847 255 255 255
9.427000045776367 4.466000080108643 0.44600000977516174 255 255 255
9.20300006866455 4.395999908447266 0.4410000145435333 255 255 255
9.300999641418457 4.479000091552734 0.4429999887943268 255 255 255
9.192999839782715 4.443999767303467 0.4410000145435333 255 255 255
9.194000244140625 4.480000019073486 0.4410000145435333 255 255 255
9.166999816894531 4.502999782562256 0.4410000145435333 255 255 255
9.156999588012695 4.5329999923706055 0.4410000145435333 255 255 255
9.335000038146973 4.658999919891357 0.44600000977516174 255 255 255
9.156000137329102 4.605000019073486 0.44200000166893005 255 255 255
9.175999641418457 4.651000022888184 0.4429999887943268 255 255 255
9.157999992370605 4.659999847412109 0.44200000166893005 255 255 255
9.121999740600586 4.677999973297119 0.44200000166893005 255 255 255
9.70300006866455 5.015999794006348 0.4569999873638153 255 255 255
9.072999954223633 4.724999904632568 0.4410000145435333 255 255 255
9.82699966430664 5.158999919891357 0.460999995470047 255 255 255
9.762999534606934 5.164999961853027 0.46000000834465027 255 255 255
9.638999938964844 5.138000011444092 0.4569999873638153 255 255 255
10.168000221252441 5.441999912261963 0.47099998593330383 255 255 255
10.880999565124512 5.869999885559082 0.49000000953674316 255 255 255
10.793999671936035 5.866000175476074 0.4880000054836273 255 255 255
10.770000457763672 5.896999835968018 0.4880000054836273 255 255 255
10.687000274658203 5.894999980926514 0.4860000014305115 255 255 255
10.807999610900879 6.006999969482422 0.49000000953674316 255 255 255
10.343000411987305 5.789999961853027 0.4779999852180481 255 255 255
10.03600025177002 5.638000011444092 0.4699999988079071 255 255 255
10.095999717712402 5.714000225067139 0.47200000286102295 255 255 255
10.348999977111816 5.901000022888184 0.47999998927116394 255 255 255
10.916000366210938 6.270999908447266 0.4950000047683716 255 255 255
10.906000137329102 6.310999870300293 0.4950000047683716 255 255 255
10.847999572753906 6.322999954223633 0.49399998784065247 255 255 255
10.972999572753906 6.442999839782715 0.49799999594688416 255 255 255
11.00100040435791 6.50600004196167 0.49900001287460327 255 255 255
10.928999900817871 6.486000061035156 0.49799999594688416 255 255 255
16.823999404907227 10.072999954223633 0.6549999713897705 255 255 255
10.515000343322754 6.328999996185303 0.4880000054836273 255 255 255
10.506999969482422 6.36899995803833 0.4880000054836273 255 255 255
10.519000053405762 6.421999931335449 0.48899999260902405 255 255 255
10.378000259399414 6.38100004196167 0.4860000014305115 255 255 255
6.9730000495910645 4.307000160217285 0.39500001072883606 255 255 255
6.948999881744385 4.307000160217285 0.39399999380111694 255 255 255
7.039000034332275 4.394000053405762 0.3970000147819519 255 255 255
7.223999977111816 4.541999816894531 0.40299999713897705 255 255 255
6.995999813079834 4.428999900817871 0.3970000147819519 255 255 255
6.910999774932861 4.40500020980835 0.39500001072883606 255 255 255
6.861999988555908 4.4039998054504395 0.39399999380111694 255 255 255
6.671000003814697 4.295000076293945 0.3889999985694885 255 255 255
6.749000072479248 4.375999927520752 0.39100000262260437 255 255 255
6.744999885559082 4.4039998054504395 0.3919999897480011 255 255 255
6.739999771118164 4.431000232696533 0.3919999897480011 255 255 255
6.741000175476074 4.461999893188477 0.3919999897480011 255 255 255
6.793000221252441 4.5279998779296875 0.39399999380111694 255 255 255
6.672999858856201 4.4770002365112305 0.39100000262260437 255 255 255
6.669000148773193 4.489999771118164 0.39100000262260437 255 255 255
6.690999984741211 4.535999774932861 0.3919999897480011 255 255 255
6.7729997634887695 4.622000217437744 0.39500001072883606 255 255 255
6.729000091552734 4.623000144958496 0.39399999380111694 255 255 255
6.465000152587891 4.4710001945495605 0.3869999945163727 255 255 255
6.4770002365112305 4.508999824523926 0.3880000114440918 255 255 255
6.466000080108643 4.5320000648498535 0.3880000114440918 255 255 255
6.39300012588501 4.495999813079834 0.38600000739097595 255 255 255
6.370999813079834 4.510000228881836 0.38600000739097595 255 255 255
6.425000190734863 4.578999996185303 0.3880000114440918 255 255 255
6.434999942779541 4.617000102996826 0.3889999985694885 255 255 255
6.449999809265137 4.6579999923706055 0.3889999985694885 255 255 255
6.406000137329102 4.6570000648498535 0.3889999985694885 255 255 255
6.442999839782715 4.715000152587891 0.38999998569488525 255 255 255
6.48199987411499 4.760000228881836 0.39100000262260437 255 255 255
6.488999843597412 4.796999931335449 0.3919999897480011 255 255 255
6.5269999504089355 4.85699987411499 0.39399999380111694 255 255 255
6.461999893188477 4.840000152587891 0.3919999897480011 255 255 255
6.395999908447266 4.821000099182129 0.39100000262260437 255 255 255
6.35099983215332 4.817999839782715 0.38999998569488525 255 255 255
6.298999786376953 4.809999942779541 0.3889999985694885 255 255 255
6.418000221252441 4.934000015258789 0.3930000066757202 255 255 255
6.426000118255615 4.956999778747559 0.3930000066757202 255 255 255
7.933000087738037 6.165999889373779 0.43700000643730164 255 255 255
7.810999870300293 6.111000061035156 0.4339999854564667 255 255 255
6.420000076293945 5.048999786376953 0.39399999380111694 255 255 255
6.369999885559082 5.041999816894531 0.3930000066757202 255 255 255
7.34499979019165 5.855999946594238 0.421999990940094 255 255 255
7.426000118255615 5.960000038146973 0.42500001192092896 255 255 255
7.395999908447266 5.954999923706055 0.42500001192092896 255 255 255
7.374000072479248 5.97599983215332 0.42399999499320984 255 255 255
6.078000068664551 4.951000213623047 0.3869999945163727 255 255 255
7.2210001945495605 5.926000118255615 0.42100000381469727 255 255 255
10.875 -9.109000205993652 0.531000018119812 255 255 255
10.925000190734863 -9.093000411987305 0.5320000052452087 255 255 255
10.520000457763672 -8.701000213623047 0.5189999938011169 255 255 255
10.539999961853027 -8.6899995803833 0.5189999938011169 255 255 255
10.638999938964844 -8.71500015258789 0.5210000276565552 255 255 255
10.682999610900879 -8.694999694824219 0.5220000147819519 255 255 255
9.972000122070312 -8.067000389099121 0.5 255 255 255
10.946999549865723 -8.795000076293945 0.527999997138977 255 255 255
10.85099983215332 -8.663000106811523 0.5239999890327454 255 255 255
10.85099983215332 -8.607000350952148 0.5239999890327454 255 255 255
10.894000053405762 -8.61400032043457 0.5249999761581421 255 255 255
10.916999816894531 -8.576000213623047 0.5239999890327454 255 255 255
11.880999565124512 -9.270000457763672 0.5519999861717224 255 255 255
11.786999702453613 -9.137999534606934 0.5479999780654907 255 255 255
11.565999984741211 -8.90999984741211 0.5410000085830688 255 255 255
11.442999839782715 -8.758000373840332 0.5360000133514404 255 255 255
11.291999816894531 -8.586999893188477 0.531000018119812 255 255 255
11.072999954223633 -8.392999649047852 0.5249999761581421 255 255 255
10.857999801635742 -8.177000045776367 0.5180000066757202 255 255 255
10.890999794006348 -8.14900016784668 0.5180000066757202 255 255 255
10.972999572753906 -8.156000137329102 0.5199999809265137 255 255 255
12.157999992370605 -8.975000381469727 0.5519999861717224 255 255 255
11.515000343322754 -8.446000099182129 0.5339999794960022 255 255 255
11.52299976348877 -8.423999786376953 0.5329999923706055 255 255 255
11.128000259399414 -8.083000183105469 0.5220000147819519 255 255 255
11.23799991607666 -8.109000205993652 0.5239999890327454 255 255 255
11.32699966430664 -8.119000434875488 0.5260000228881836 255 255 255
12.029000282287598 -8.562999725341797 0.5450000166893005 255 255 255
12.076000213623047 -8.538999557495117 0.5450000166893005 255 255 255
11.968000411987305 -8.406999588012695 0.5410000085830688 255 255 255
11.496999740600586 -8.02400016784668 0.527999997138977 255 255 255
12.17199993133545 -8.46500015258789 0.5460000038146973 255 255 255
12.111000061035156 -8.366000175476074 0.5440000295639038 255 255 255
11.98900032043457 -8.22700023651123 0.5389999747276306 255 255 255
11.782999992370605 -8.031999588012695 0.5329999923706055 255 255 255
11.734999656677246 -7.945000171661377 0.531000018119812 255 255 255
11.689000129699707 -7.861000061035156 0.5289999842643738 255 255 255
11.644000053405762 -7.7769999504089355 0.5270000100135803 255 255 255
11.628000259399414 -7.739999771118164 0.5260000228881836 255 255 255
11.861000061035156 -7.841000080108643 0.5320000052452087 255 255 255
12.321999549865723 -8.09000015258789 0.5440000295639038 255 255 255
12.043999671936035 -7.854000091552734 0.5360000133514404 255 255 255
11.982999801635742 -7.761000156402588 0.5329999923706055 255 255 255
12.25100040435791 -7.879000186920166 0.5400000214576721 255 255 255
12.460000038146973 -7.958000183105469 0.5450000166893005 255 255 255
12.581999778747559 -8.008000373840332 0.5479999780654907 255 255 255
12.543000221252441 -7.927999973297119 0.5460000038146973 255 255 255
12.553999900817871 -7.880000114440918 0.5460000038146973 255 255 255
12.557999610900879 -7.828000068664551 0.5450000166893005 255 255 255
12.595000267028809 -7.796000003814697 0.5460000038146973 255 255 255
12.628000259399414 -7.761000156402588 0.5460000038146973 255 255 255
12.630000114440918 -7.708000183105469 0.5450000166893005 255 255 255
12.607999801635742 -7.666999816894531 0.5440000295639038 255 255 255
14.12600040435791 -8.526000022888184 0.5839999914169312 255 255 255
12.338000297546387 -7.3979997634887695 0.5360000133514404 255 255 255
13.498000144958496 -8.034000396728516 0.5659999847412109 255 255 255
13.925999641418457 -8.227999687194824 0.5770000219345093 255 255 255
13.366999626159668 -7.8429999351501465 0.5609999895095825 255 255 255
12.880999565124512 -7.505000114440918 0.5479999780654907 255 255 255
13.788000106811523 -8.001999855041504 0.5709999799728394 255 255 255
13.619000434875488 -7.8470001220703125 0.5659999847412109 255 255 255
13.595000267028809 -7.776000022888184 0.5649999976158142 255 255 255
13.701000213623047 -7.78000020980835 0.5669999718666077 255 255 255
13.77299976348877 -7.763000011444092 0.5680000185966492 255 255 255
13.770999908447266 -7.704999923706055 0.5680000185966492 255 255 255
13.854000091552734 -7.695000171661377 0.5690000057220459 255 255 255
13.777000427246094 -7.624000072479248 0.5669999718666077 255 255 255
14.496000289916992 -7.960999965667725 0.5849999785423279 255 255 255
13.76099967956543 -7.502999782562256 0.5649999976158142 255 255 255
13.692000389099121 -7.408999919891357 0.5630000233650208 255 255 255
13.694999694824219 -7.355999946594238 0.5619999766349792 255 255 255
13.718000411987305 -7.313000202178955 0.5619999766349792 255 255 255
13.72700023651123 -7.26200008392334 0.5619999766349792 255 255 255
20.14900016784668 -10.605999946594238 0.7269999980926514 255 255 255
20.142000198364258 -10.520999908447266 0.7260000109672546 255 255 255
20.07900047302246 -10.407999992370605 0.7229999899864197 255 255 255
19.957000732421875 -10.265999794006348 0.718999981880188 255 255 255
19.945999145507812 -10.180999755859375 0.7179999947547913 255 255 255
20.0049991607666 -10.131999969482422 0.718999981880188 255 255 255
19.90999984741211 -10.045000076293945 0.7160000205039978 255 255 255
20.847999572753906 -10.4350004196167 0.7390000224113464 255 255 255
21.003000259399414 -10.430000305175781 0.7419999837875366 255 255 255
21.180999755859375 -10.4350004196167 0.7459999918937683 255 255 255
21.28499984741211 -10.402999877929688 0.7480000257492065 255 255 255
21.325000762939453 -10.34000015258789 0.7480000257492065 255 255 255
21.541000366210938 -10.361000061035156 0.753000020980835 255 255 255
21.41200065612793 -10.258000373840332 0.7490000128746033 255 255 255
21.631999969482422 -10.279000282287598 0.7540000081062317 255 255 255
21.658000946044922 -10.208999633789062 0.7540000081062317 255 255 255
22.700000762939453 -10.611000061035156 0.7789999842643738 255 255 255
22.844999313354492 -10.592000007629395 0.7820000052452087 255 255 255
22.83099937438965 -10.498000144958496 0.781000018119812 255 255 255
22.729999542236328 -10.364999771118164 0.7770000100135803 255 255 255
22.839000701904297 -10.371999740600586 0.7799999713897705 255 255 255
23.81999969482422 -10.72599983215332 0.8029999732971191 255 255 255
39.939998626708984 -17.815000534057617 1.2039999961853027 255 255 255
40.08700180053711 -17.729999542236328 1.2070000171661377 255 255 255
40.141998291015625 -17.604000091552734 1.2070000171661377 255 255 255
40.3129997253418 -17.527000427246094 1.2089999914169312 255 255 255
40.39400100708008 -17.41200065612793 1.2100000381469727 255 255 255
40.63399887084961 -17.440000534057617 1.215000033378601 255 255 255
40.694000244140625 -17.31399917602539 1.215999960899353 255 255 255
52.16299819946289 -21.993000030517578 1.4980000257492065 255 255 255
54.500999450683594 -22.775999069213867 1.5540000200271606 255 255 255
54.89400100708008 -22.738000869750977 1.562000036239624 255 255 255
60.49599838256836 -24.83300018310547 1.6979999542236328 255 255 255
61.04800033569336 -24.836000442504883 1.7089999914169312 255 255 255
60.8390007019043 -24.638999938964844 1.7029999494552612 255 255 255
76.83499908447266 -20.363000869750977 2.0190000534057617 255 255 255
76.58699798583984 -20.040000915527344 2.010999917984009 255 255 255
75.3280029296875 -19.20599937438965 1.9789999723434448 255 255 255
74.62200164794922 -18.777000427246094 1.9609999656677246 255 255 255
74.88600158691406 -18.5939998626709 1.965999960899353 255 255 255
74.66999816894531 -18.291000366210938 1.9589999914169312 255 255 255
74.65399932861328 -18.163000106811523 1.9579999446868896 255 255 255
74.65799713134766 -17.916000366210938 1.9570000171661377 255 255 255
74.64399719238281 -17.665000915527344 1.9550000429153442 255 255 255
74.76799774169922 -17.445999145507812 1.9570000171661377 255 255 255
74.81999969482422 -17.211000442504883 1.9570000171661377 255 255 255
74.8949966430664 -16.979999542236328 1.9570000171661377 255 255 255
75.23699951171875 -16.80900001525879 1.9639999866485596 255 255 255
75.2239990234375 -16.683000564575195 1.9630000591278076 255 255 255
75.11199951171875 -16.40999984741211 1.9589999914169312 255 255 255
75.26499938964844 -16.195999145507812 1.9620000123977661 255 255 255
75.53500366210938 -16.006000518798828 1.9670000076293945 255 255 255
75.57499694824219 -15.765999794006348 1.9670000076293945 255 255 255
75.59700012207031 -15.52299976348877 1.965999960899353 255 255 255
75.6719970703125 -15.414999961853027 1.9670000076293945 255 255 255
75.83200073242188 -15.199000358581543 1.9700000286102295 255 255 255
75.76699829101562 -14.939000129699707 1.9670000076293945 255 255 255
72.94999694824219 -14.147000312805176 1.9010000228881836 255 255 255
69.70600128173828 -13.0649995803833 1.8240000009536743 255 255 255
68.30899810791016 -12.581999778747559 1.7899999618530273 255 255 255
67.85800170898438 -12.388999938964844 1.7790000438690186 255 255 255
67.94400024414062 -12.184000015258789 1.7799999713897705 255 255 255
68.00199890136719 -11.973999977111816 1.781000018119812 255 255 255
63.481998443603516 -10.973999977111816 1.6759999990463257 255 255 255
62.39799880981445 -10.586000442504883 1.649999976158142 255 255 255
59.68000030517578 -9.644000053405762 1.5850000381469727 255 255 255
58.150001525878906 -9.210000038146973 1.5490000247955322 255 255 255
57.106998443603516 -8.862000465393066 1.524999976158142 255 255 255
56.994998931884766 -8.66100025177002 1.5210000276565552 255 255 255
55.4119987487793 -8.243000030517578 1.4839999675750732 255 255 255
54.45600128173828 -7.927000045776367 1.4620000123977661 255 255 255
54.152000427246094 -7.709000110626221 1.4539999961853027 255 255 255
54.196998596191406 -7.629000186920166 1.4550000429153442 255 255 255
54.28900146484375 -7.4670000076293945 1.4559999704360962 255 255 255
54.32400131225586 -7.297999858856201 1.4570000171661377 255 255 255
54.380001068115234 -7.131999969482422 1.4570000171661377 255 255 255
54.42599868774414 -6.964000225067139 1.4579999446868896 255 255 255
54.479000091552734 -6.796999931335449 1.4589999914169312 255 255 255
54.51599884033203 -6.627999782562256 1.4589999914169312 255 255 255
54.582000732421875 -6.548999786376953 1.4600000381469727 255 255 255
54.60599899291992 -6.377999782562256 1.4600000381469727 255 255 255
54.63999938964844 -6.208000183105469 1.4609999656677246 255 255 255
54.70100021362305 -6.040999889373779 1.4620000123977661 255 255 255
44.9109992980957 -4.678999900817871 1.2369999885559082 255 255 255
44.35900115966797 -4.480999946594238 1.2239999771118164 255 255 255
43.78099822998047 -4.353000164031982 1.2100000381469727 255 255 255
43.606998443603516 -4.197999954223633 1.2059999704360962 255 255 255
43.59600067138672 -4.059000015258789 1.2059999704360962 255 255 255
42.19300079345703 -3.7950000762939453 1.1729999780654907 255 255 255
41.731998443603516 -3.621999979019165 1.1619999408721924 255 255 255
41.30500030517578 -3.4539999961853027 1.1519999504089355 255 255 255
35.125 -2.8299999237060547 1.0110000371932983 255 255 255
40.36000061035156 -3.184999942779541 1.1299999952316284 255 255 255
35.13399887084961 -2.6649999618530273 1.0110000371932983 255 255 255
39.66699981689453 -2.880000114440918 1.1139999628067017 255 255 255
39.68199920654297 -2.755000114440918 1.1139999628067017 255 255 255
34.55699920654297 -2.2939999103546143 0.996999979019165 255 255 255
34.229000091552734 -2.1640000343322754 0.9890000224113464 255 255 255
34.387001037597656 -2.065999984741211 0.9929999709129333 255 255 255
34.507999420166016 -2.0190000534057617 0.9959999918937683 255 255 255
34.444000244140625 -1.906000018119812 0.9940000176429749 255 255 255
23.007999420166016 -1.2100000381469727 0.7329999804496765 255 255 255
22.808000564575195 -1.1269999742507935 0.7279999852180481 255 255 255
23.069000244140625 -1.0670000314712524 0.734000027179718 255 255 255
23.167999267578125 -0.9990000128746033 0.7360000014305115 255 255 255
21.69099998474121 -0.8690000176429749 0.703000009059906 255 255 255
21.687999725341797 -0.8339999914169312 0.703000009059906 255 255 255
21.593000411987305 -0.7630000114440918 0.699999988079071 255 255 255
21.482999801635742 -0.6919999718666077 0.6980000138282776 255 255 255
21.430999755859375 -0.6230000257492065 0.6970000267028809 255 255 255
21.472999572753906 -0.5559999942779541 0.6980000138282776 255 255 255
21.732999801635742 -0.49399998784065247 0.703000009059906 255 255 255
21.360000610351562 -0.4189999997615814 0.6949999928474426 255 255 255
21.084999084472656 -0.38100001215934753 0.6890000104904175 255 255 255
21.100000381469727 -0.3149999976158142 0.6890000104904175 255 255 255
21.10099983215332 -0.24899999797344208 0.6890000104904175 255 255 255
21.082000732421875 -0.18199999630451202 0.6880000233650208 255 255 255
21.15399932861328 -0.11599999666213989 0.6899999976158142 255 255 255
21.492000579833984 -0.05000000074505806 0.6980000138282776 255 255 255
20.9950008392334 0.041999999433755875 0.5270000100135803 255 255 255
21.108999252319336 0.1080000028014183 0.5289999842643738 255 255 255
21.391000747680664 0.14300000667572021 0.5329999923706055 255 255 255
21.444000244140625 0.210999995470047 0.5339999794960022 255 255 255
21.482999801635742 0.27799999713897705 0.5350000262260437 255 255 255
21.496000289916992 0.34599998593330383 0.5350000262260437 255 255 255
21.402999877929688 0.41200000047683716 0.5329999923706055 255 255 255
21.209999084472656 0.4749999940395355 0.5299999713897705 255 255 255
21.288000106811523 0.5440000295639038 0.5320000052452087 255 255 255
21.400999069213867 0.5799999833106995 0.5329999923706055 255 255 255
21.351999282836914 0.6460000276565552 0.5329999923706055 255 255 255
21.863000869750977 0.7300000190734863 0.5400000214576721 255 255 255
21.520999908447266 0.7860000133514404 0.5350000262260437 255 255 255
21.649999618530273 0.859000027179718 0.5370000004768372 255 255 255
21.726999282836914 0.9300000071525574 0.5389999747276306 255 255 255
21.670000076293945 0.9959999918937683 0.5379999876022339 255 255 255
21.545000076293945 1.0579999685287476 0.5360000133514404 255 255 255
21.496000289916992 1.090000033378601 0.5350000262260437 255 255 255
21.54800033569336 1.159999966621399 0.5360000133514404 255 255 255
21.297000885009766 1.2139999866485596 0.5320000052452087 255 255 255
21.70599937438965 1.3049999475479126 0.5379999876022339 255 255 255
21.775999069213867 1.378000020980835 0.5400000214576721 255 255 255
21.768999099731445 1.4459999799728394 0.5400000214576721 255 255 255
18.695999145507812 1.274999976158142 0.49300000071525574 255 255 255
18.804000854492188 1.3420000076293945 0.49399998784065247 255 255 255
19.118999481201172 1.4240000247955322 0.49900001287460327 255 255 255
18.933000564575195 1.4709999561309814 0.4970000088214874 255 255 255
18.01300048828125 1.4570000171661377 0.4830000102519989 255 255 255
17.902999877929688 1.5049999952316284 0.48100000619888306 255 255 255
17.84600067138672 1.5570000410079956 0.47999998927116394 255 255 255
17.915000915527344 1.590999960899353 0.48100000619888306 255 255 255
18.062999725341797 1.6610000133514404 0.48399999737739563 255 255 255
17.900999069213867 1.7029999494552612 0.48100000619888306 255 255 255
17.993000030517578 1.7690000534057617 0.4830000102519989 255 255 255
18.902999877929688 1.9170000553131104 0.4970000088214874 255 255 255
17.81999969482422 1.8660000562667847 0.47999998927116394 255 255 255
17.8439998626709 1.9249999523162842 0.48100000619888306 255 255 255
18.499000549316406 2.0239999294281006 0.4909999966621399 255 255 255
18.51300048828125 2.0840001106262207 0.4909999966621399 255 255 255
18.489999771118164 2.140000104904175 0.4909999966621399 255 255 255
18.41200065612793 2.190000057220459 0.49000000953674316 255 255 255
18.319000244140625 2.23799991607666 0.4880000054836273 255 255 255
17.98699951171875 2.255000114440918 0.4830000102519989 255 255 255
17.944000244140625 2.306999921798706 0.4830000102519989 255 255 255
17.701000213623047 2.3320000171661377 0.4790000021457672 255 255 255
17.402000427246094 2.321000099182129 0.4749999940395355 255 255 255
17.514999389648438 2.3919999599456787 0.47699999809265137 255 255 255
17.639999389648438 2.4660000801086426 0.4790000021457672 255 255 255
17.441999435424805 2.49399995803833 0.47600001096725464 255 255 255
17.19099998474121 2.5139999389648438 0.47200000286102295 255 255 255
17.363000869750977 2.5940001010894775 0.4749999940395355 255 255 255
17.41200065612793 2.6570000648498535 0.47600001096725464 255 255 255
17.222000122070312 2.6559998989105225 0.4729999899864197 255 255 255
17.18600082397461 2.7060000896453857 0.47200000286102295 255 255 255
17.229000091552734 2.7679998874664307 0.4729999899864197 255 255 255
17.329999923706055 2.8399999141693115 0.4749999940395355 255 255 255
17.261999130249023 2.884999990463257 0.4740000069141388 255 255 255
17.333999633789062 2.953000068664551 0.4749999940395355 255 255 255
15.22599983215332 2.6459999084472656 0.4429999887943268 255 255 255
15.243000030517578 2.6740000247955322 0.4429999887943268 255 255 255
15.272000312805176 2.7279999256134033 0.4440000057220459 255 255 255
15.133999824523926 2.753000020980835 0.44200000166893005 255 255 255
15.130999565124512 2.802000045776367 0.44200000166893005 255 255 255
18.023000717163086 3.3910000324249268 0.4869999885559082 255 255 255
18.06800079345703 3.4579999446868896 0.4880000054836273 255 255 255
17.884000778198242 3.4519999027252197 0.48500001430511475 255 255 255
17.655000686645508 3.4660000801086426 0.48100000619888306 255 255 255
17.92799949645996 3.5769999027252197 0.4860000014305115 255 255 255
18.17799949645996 3.686000108718872 0.49000000953674316 255 255 255
17.5 3.6070001125335693 0.47999998927116394 255 255 255
17.58799934387207 3.683000087738037 0.48100000619888306 255 255 255
17.49799919128418 3.7209999561309814 0.47999998927116394 255 255 255
15.154999732971191 3.252000093460083 0.4429999887943268 255 255 255
15.154999732971191 3.3010001182556152 0.4440000057220459 255 255 255
15.177000045776367 3.3559999465942383 0.4440000057220459 255 255 255
18.072999954223633 4.051000118255615 0.48899999260902405 255 255 255
20.3799991607666 4.631999969482422 0.5260000228881836 255 255 255
20.256000518798828 4.671000003814697 0.5239999890327454 255 255 255
20.148000717163086 4.7129998207092285 0.5220000147819519 255 255 255
20.045000076293945 4.755000114440918 0.5210000276565552 255 255 255
19.941999435424805 4.763999938964844 0.5199999809265137 255 255 255
19.836000442504883 4.804999828338623 0.5180000066757202 255 255 255
19.73699951171875 4.8470001220703125 0.5170000195503235 255 255 255
19.628999710083008 4.885000228881836 0.5149999856948853 255 255 255
19.52199935913086 4.923999786376953 0.5139999985694885 255 255 255
19.427000045776367 4.965000152587891 0.5130000114440918 255 255 255
19.31599998474121 5.001999855041504 0.5109999775886536 255 255 255
19.229000091552734 5.01200008392334 0.5099999904632568 255 255 255
19.13599967956543 5.052000045776367 0.5090000033378601 255 255 255
19.02899932861328 5.0879998207092285 0.5070000290870667 255 255 255
18.926000595092773 5.124000072479248 0.5059999823570251 255 255 255
18.82900047302246 5.160999774932861 0.5049999952316284 255 255 255
18.729999542236328 5.197999954223633 0.503000020980835 255 255 255
18.645999908447266 5.23799991607666 0.5019999742507935 255 255 255
18.56100082397461 5.244999885559082 0.5009999871253967 255 255 255
18.4689998626709 5.2820000648498535 0.5 255 255 255
13.38700008392334 3.881999969482422 0.41999998688697815 255 255 255
13.359000205993652 3.9189999103546143 0.4189999997615814 255 255 255
18.18199920654297 5.386000156402588 0.4959999918937683 255 255 255
18.086999893188477 5.420000076293945 0.4950000047683716 255 255 255
18.020000457763672 5.461999893188477 0.49399998784065247 255 255 255
17.920000076293945 5.461999893188477 0.49300000071525574 255 255 255
13.555000305175781 4.184999942779541 0.42399999499320984 255 255 255
17.739999771118164 5.53000020980835 0.49000000953674316 255 255 255
17.66699981689453 5.567999839782715 0.48899999260902405 255 255 255
12.918000221252441 4.123000144958496 0.414000004529953 255 255 255
12.916000366210938 4.168000221252441 0.414000004529953 255 255 255
17.402000427246094 5.636000156402588 0.4860000014305115 255 255 255
17.31399917602539 5.666999816894531 0.48500001430511475 255 255 255
10.444000244140625 3.4660000801086426 0.375 255 255 255
10.350000381469727 3.4709999561309814 0.37400001287460327 255 255 255
10.255999565124512 3.4749999046325684 0.3720000088214874 255 255 255
10.192000389099121 3.490000009536743 0.3720000088214874 255 255 255
10.17300033569336 3.5190000534057617 0.3709999918937683 255 255 255
10.222000122070312 3.553999900817871 0.3720000088214874 255 255 255
10.218999862670898 3.5889999866485596 0.3720000088214874 255 255 255
10.093999862670898 3.5810000896453857 0.3709999918937683 255 255 255
10.178999900817871 3.6470000743865967 0.3720000088214874 255 255 255
9.638999938964844 3.489000082015991 0.36399999260902405 255 255 255
9.60099983215332 3.509999990463257 0.3630000054836273 255 255 255
9.51099967956543 3.510999917984009 0.3619999885559082 255 255 255
9.48900032043457 3.5199999809265137 0.3619999885559082 255 255 255
9.520999908447266 3.565000057220459 0.3619999885559082 255 255 255
9.553000450134277 3.6110000610351562 0.3630000054836273 255 255 255
9.531999588012695 3.638000011444092 0.3630000054836273 255 255 255
9.491999626159668 3.6570000648498535 0.3619999885559082 255 255 255
9.293999671936035 3.615000009536743 0.35899999737739563 255 255 255
10.02299976348877 3.931999921798706 0.3709999918937683 255 255 255
9.609999656677246 3.805999994277954 0.36500000953674316 255 255 255
9.534000396728516 3.7939999103546143 0.36399999260902405 255 255 255
9.517999649047852 3.822000026702881 0.36399999260902405 255 255 255
9.519000053405762 3.8570001125335693 0.36399999260902405 255 255 255
9.258000373840332 3.7860000133514404 0.36000001430511475 255 255 255
9.446000099182129 3.8970000743865967 0.3630000054836273 255 255 255
10.109999656677246 4.205999851226807 0.37400001287460327 255 255 255
9.276000022888184 3.8959999084472656 0.3610000014305115 255 255 255
9.265999794006348 3.9089999198913574 0.3610000014305115 255 255 255
9.243000030517578 3.933000087738037 0.36000001430511475 255 255 255
9.111000061035156 3.9110000133514404 0.35899999737739563 255 255 255
9.03600025177002 3.9130001068115234 0.3569999933242798 255 255 255
8.991999626159668 3.927999973297119 0.3569999933242798 255 255 255
9.050999641418457 3.986999988555908 0.3580000102519989 255 255 255
9.074000358581543 4.013999938964844 0.35899999737739563 255 255 255
9.053999900817871 4.039000034332275 0.35899999737739563 255 255 255
15.765999794006348 7.072000026702881 0.47099998593330383 255 255 255
9.031000137329102 4.0970001220703125 0.35899999737739563 255 255 255
15.819000244140625 7.275000095367432 0.4729999899864197 255 255 255
9.484000205993652 4.408999919891357 0.367000013589859 255 255 255
9.491000175476074 4.431000232696533 0.367000013589859 255 255 255
9.670999526977539 4.551000118255615 0.3700000047683716 255 255 255
9.583999633789062 4.547999858856201 0.36899998784065247 255 255 255
9.562999725341797 4.573999881744385 0.36899998784065247 255 255 255
9.456000328063965 4.559999942779541 0.367000013589859 255 255 255
9.406000137329102 4.572000026702881 0.367000013589859 255 255 255
10.081999778747559 4.938000202178955 0.3779999911785126 255 255 255
9.876999855041504 4.85699987411499 0.375 255 255 255
9.791000366210938 4.854000091552734 0.37400001287460327 255 255 255
9.789999961853027 4.892000198364258 0.37400001287460327 255 255 255
9.972000122070312 5.020999908447266 0.3779999911785126 255 255 255
9.920000076293945 5.033999919891357 0.37700000405311584 255 255 255
9.956000328063965 5.0920000076293945 0.3779999911785126 255 255 255
9.687000274658203 4.993000030517578 0.37299999594688416 255 255 255
9.675999641418457 5.006999969482422 0.37299999594688416 255 255 255
9.654999732971191 5.033999919891357 0.37299999594688416 255 255 255
9.656999588012695 5.073999881744385 0.37400001287460327 255 255 255
9.645999908447266 5.10699987411499 0.37400001287460327 255 255 255
9.631999969482422 5.138000011444092 0.37400001287460327 255 255 255
9.668000221252441 5.197000026702881 0.375 255 255 255
9.942000389099121 5.383999824523926 0.3799999952316284 255 255 255
9.800999641418457 5.3470001220703125 0.3779999911785126 255 255 255
9.982000350952148 5.466000080108643 0.38100001215934753 255 255 255
9.958999633789062 5.49399995803833 0.38100001215934753 255 255 255
16.466999053955078 9.131999969482422 0.49399998784065247 255 255 255
16.492000579833984 9.21399974822998 0.4950000047683716 255 255 255
16.525999069213867 9.300999641418457 0.4959999918937683 255 255 255
16.56599998474121 9.392000198364258 0.4970000088214874 255 255 255
16.570999145507812 9.46399974822998 0.49799999594688416 255 255 255
10.83899974822998 6.2230000495910645 0.39800000190734863 255 255 255
16.631999969482422 9.602999687194824 0.5 255 255 255
10.704000473022461 6.236000061035156 0.3959999978542328 255 255 255
10.758000373840332 6.357999801635742 0.39800000190734863 255 255 255
16.808000564575195 10.02299976348877 0.5049999952316284 255 255 255
7.258999824523926 4.330999851226807 0.335999995470047 255 255 255
16.84000015258789 10.11400032043457 0.5070000290870667 255 255 255
10.538999557495117 6.386000156402588 0.39500001072883606 255 255 255
7.064000129699707 4.321000099182129 0.33399999141693115 255 255 255
7.209000110626221 4.440000057220459 0.335999995470047 255 255 255
6.910999774932861 4.288000106811523 0.3310000002384186 255 255 255
6.869999885559082 4.291999816894531 0.3310000002384186 255 255 255
6.879000186920166 4.313000202178955 0.3310000002384186 255 255 255
6.880000114440918 4.343999862670898 0.3310000002384186 255 255 255
6.806000232696533 4.327000141143799 0.33000001311302185 255 255 255
6.801000118255615 4.354000091552734 0.3310000002384186 255 255 255
6.828999996185303 4.4019999504089355 0.3310000002384186 255 255 255
6.8520002365112305 4.447000026702881 0.3319999873638153 255 255 255
6.74399995803833 4.4079999923706055 0.33000001311302185 255 255 255
6.702000141143799 4.395999908447266 0.33000001311302185 255 255 255
6.663000106811523 4.400000095367432 0.32899999618530273 255 255 255
6.696000099182129 4.452000141143799 0.33000001311302185 255 255 255
6.650000095367432 4.452000141143799 0.32899999618530273 255 255 255
6.677999973297119 4.500999927520752 0.33000001311302185 255 255 255
6.679999828338623 4.5329999923706055 0.3310000002384186 255 255 255
6.677999973297119 4.560999870300293 0.3310000002384186 255 255 255
6.578999996185303 4.510000228881836 0.32899999618530273 255 255 255
6.517000198364258 4.498000144958496 0.328000009059906 255 255 255
6.693999767303467 4.650000095367432 0.3319999873638153 255 255 255
6.644999980926514 4.646999835968018 0.3310000002384186 255 255 255
6.46999979019165 4.556000232696533 0.328000009059906 255 255 255
6.4079999923706055 4.543000221252441 0.3269999921321869 255 255 255
6.394000053405762 4.563000202178955 0.3269999921321869 255 255 255
6.39900016784668 4.5970001220703125 0.328000009059906 255 255 255
6.465000152587891 4.658999919891357 0.32899999618530273 255 255 255
6.506999969482422 4.71999979019165 0.33000001311302185 255 255 255
6.434999942779541 4.699999809265137 0.32899999618530273 255 255 255
6.48799991607666 4.769000053405762 0.33000001311302185 255 255 255
