ply
format ascii 1.0
element vertex 691
property float x
property float y
property float z
property uchar red
property uchar green
property uchar blue
end_header
26.442293167114258 -11.779086112976074 -0.45564043521881104 255 255 255
3.7979178428649902 2.1666383743286133 -0.25848910212516785 255 255 255
8.958253860473633 -6.783504962921143 -0.9721413850784302 255 255 255
15.268780708312988 -9.198850631713867 -0.24770689010620117 255 255 255
9.082655906677246 4.634514331817627 0.4727628529071808 255 255 255
6.3369460105896 1.9853482246398926 -0.962244987487793 255 255 255
8.764599800109863 3.8542447090148926 -1.1174591779708862 255 255 255
18.580114364624023 1.9865710735321045 0.42478424310684204 255 255 255
14.416945457458496 -8.480232238769531 -0.42176881432533264 255 255 255
4.401923656463623 1.9900197982788086 -0.8961901068687439 255 255 255
5.507528781890869 -2.9474310874938965 -0.39486339688301086 255 255 255
53.85966491699219 -7.67593240737915 -0.19254934787750244 255 255 255
9.237800598144531 -0.8101374506950378 -1.6401305198669434 255 255 255
15.12303638458252 3.3619754314422607 0.5717113018035889 255 255 255
6.6152262687683105 -0.09763612598180771 -1.7264114618301392 255 255 255
19.480091094970703 -6.993316650390625 -1.382110834121704 255 255 255
13.38206958770752 0.7083007097244263 -0.6697450876235962 255 255 255
6.4843244552612305 2.2371320724487305 -0.7803057432174683 255 255 255
12.130786895751953 -2.1525275707244873 -1.7015745639801025 255 255 255
7.434554576873779 -2.350837230682373 -1.8134526014328003 255 255 255
5.92539644241333 -2.6397719383239746 -1.551110863685608 255 255 255
5.1154561042785645 -3.689486026763916 -1.2984380722045898 255 255 255
21.24301528930664 -10.186567306518555 0.6351007223129272 255 255 255
4.729870319366455 1.9475398063659668 -0.7378857135772705 255 255 255
5.197973728179932 -2.7002925872802734 -1.0880099534988403 255 255 255
6.905914306640625 -1.3709279298782349 -1.7496263980865479 255 255 255
15.085306167602539 3.268517017364502 0.43094873428344727 255 255 255
8.202232360839844 -3.218855857849121 -1.7830747365951538 255 255 255
18.5401554107666 2.0382864475250244 -0.20469880104064941 255 255 255
9.63873291015625 3.871943235397339 0.34717729687690735 255 255 255
13.274553298950195 -0.5228866338729858 -1.6562050580978394 255 255 255
17.827085494995117 4.2325358390808105 0.3771367371082306 255 255 255
8.175675392150879 4.148661136627197 -0.7959427237510681 255 255 255
17.374391555786133 3.455509901046753 0.6814072132110596 255 255 255
15.325592041015625 7.4871439933776855 0.0480254665017128 255 255 255
10.459321022033691 -7.003402233123779 -0.06291717290878296 255 255 255
7.1844682693481445 1.6259703636169434 -0.4530012607574463 255 255 255
6.863461494445801 -0.5246544480323792 -1.6476342678070068 255 255 255
4.127367973327637 1.984495759010315 -0.9530623555183411 255 255 255
19.507665634155273 -7.244694709777832 -0.3114772140979767 255 255 255
19.263874053955078 5.64655876159668 -0.7358680963516235 255 255 255
8.648829460144043 -2.3510303497314453 -1.8216017484664917 255 255 255
5.535140037536621 -2.853273391723633 -0.5724394917488098 255 255 255
9.190032958984375 -7.075223922729492 -0.6210780739784241 255 255 255
7.021608352661133 4.7184906005859375 -0.09121891111135483 255 255 255
5.80842399597168 5.046355247497559 0.17045004665851593 255 255 255
22.584686279296875 2.1799888610839844 -0.06560885161161423 255 255 255
28.054418563842773 -8.168046951293945 -1.6782784461975098 255 255 255
6.58549690246582 -3.0000722408294678 -1.691124677658081 255 255 255
3.89981746673584 2.2013206481933594 -0.35581573843955994 255 255 255
7.151172637939453 4.439140319824219 -0.3214007318019867 255 255 255
9.480807304382324 -0.247645765542984 -1.5516784191131592 255 255 255
15.310271263122559 -2.114975929260254 -1.6220062971115112 255 255 255
14.95959186553955 4.717568397521973 -0.764523983001709 255 255 255
15.564092636108398 8.043806076049805 0.09615829586982727 255 255 255
73.72647094726562 -17.592998504638672 -0.4005527198314667 255 255 255
15.777379035949707 9.318327903747559 0.002597114536911249 255 255 255
18.295116424560547 5.953310489654541 -0.07932811230421066 255 255 255
9.370940208435059 -3.7717552185058594 -1.7657204866409302 255 255 255
5.060394763946533 -3.5741665363311768 -1.2125651836395264 255 255 255
12.89915943145752 -7.796953201293945 -0.8501902222633362 255 255 255
3.086618661880493 2.4148106575012207 -0.253278523683548 255 255 255
16.696517944335938 -8.92702579498291 -0.704710841178894 255 255 255
4.309035301208496 3.303807020187378 -0.7067331671714783 255 255 255
7.403818130493164 -2.178954601287842 -1.7359338998794556 255 255 255
9.98067569732666 -2.441696882247925 -1.7215919494628906 255 255 255
10.5549955368042 -2.9191713333129883 -1.7633187770843506 255 255 255
6.90925407409668 -2.8073675632476807 -1.7839903831481934 255 255 255
6.51240348815918 1.2032296657562256 -0.948336124420166 255 255 255
19.16996955871582 -7.977346420288086 -1.3245595693588257 255 255 255
9.344048500061035 3.6561436653137207 -1.0222132205963135 255 255 255
12.6583890914917 -0.576297402381897 -1.6040676832199097 255 255 255
21.598186492919922 1.936266303062439 0.2390994131565094 255 255 255
13.215042114257812 0.12415680289268494 -0.6174211502075195 255 255 255
34.434635162353516 -4.197656631469727 -1.0829464197158813 255 255 255
40.216678619384766 -8.266728401184082 -1.1152098178863525 255 255 255
12.777196884155273 6.836951732635498 -0.8557320833206177 255 255 255
21.389360427856445 -9.662544250488281 0.7064874768257141 255 255 255
7.390564918518066 -3.1109304428100586 -1.1022627353668213 255 255 255
6.6615376472473145 -1.3457386493682861 -1.804872989654541 255 255 255
6.566266059875488 0.2260216474533081 -1.6529536247253418 255 255 255
19.205551147460938 -4.432886600494385 -1.5586888790130615 255 255 255
12.134210586547852 -1.9366885423660278 -1.6774300336837769 255 255 255
11.043906211853027 -1.1299940347671509 -1.6400209665298462 255 255 255
18.341245651245117 2.8571388721466064 0.4740505814552307 255 255 255
10.266181945800781 4.101106643676758 0.06160413846373558 255 255 255
31.768686294555664 -5.414514064788818 -1.453882098197937 255 255 255
21.43440055847168 0.2538177967071533 0.7311871647834778 255 255 255
5.526012897491455 -2.843203067779541 -0.5286378860473633 255 255 255
12.675166130065918 4.973026275634766 -0.4893958866596222 255 255 255
9.055201530456543 -0.38086196780204773 -1.567534327507019 255 255 255
6.943065643310547 1.9486054182052612 -1.6221187114715576 255 255 255
10.780156135559082 -8.369844436645508 0.658600389957428 255 255 255
40.37933349609375 -17.0024471282959 0.08231933414936066 255 255 255
13.249788284301758 4.99709415435791 -0.6682697534561157 255 255 255
19.79364013671875 5.632650375366211 -0.3451150357723236 255 255 255
10.213915824890137 4.179694175720215 -0.22975444793701172 255 255 255
12.979462623596191 -0.4725709557533264 -1.0715875625610352 255 255 255
37.488502502441406 -14.964054107666016 -0.3305639326572418 255 255 255
12.007701873779297 -7.487349033355713 0.38923147320747375 255 255 255
13.165425300598145 0.3241780996322632 -0.6454511284828186 255 255 255
9.036182403564453 0.4738215506076813 -0.7596454620361328 255 255 255
4.22219705581665 2.150212049484253 -0.6883635520935059 255 255 255
4.13499641418457 1.9084607362747192 -0.9926804304122925 255 255 255
22.74724578857422 -10.291259765625 -0.01671106182038784 255 255 255
12.047408103942871 -7.758662223815918 -0.7563137412071228 255 255 255
19.512426376342773 -9.508965492248535 -1.3394277095794678 255 255 255
4.287253379821777 2.017254114151001 -0.6445241570472717 255 255 255
16.24820327758789 10.328682899475098 -0.17141185700893402 255 255 255
17.51829719543457 6.200876712799072 -0.6258724331855774 255 255 255
11.836960792541504 -7.9288201332092285 0.5667874217033386 255 255 255
28.054407119750977 -0.27041417360305786 -0.0346965566277504 255 255 255
13.171225547790527 -0.056843191385269165 -0.815750002861023 255 255 255
16.887941360473633 -2.4787802696228027 -1.4996745586395264 255 255 255
8.996378898620605 0.22937452793121338 -1.681894063949585 255 255 255
40.44289016723633 -16.457958221435547 1.7255247831344604 255 255 255
8.139601707458496 0.7346615195274353 -1.6751662492752075 255 255 255
6.3680596351623535 -0.7887932658195496 -1.7246114015579224 255 255 255
10.420770645141602 4.05299186706543 -0.2723828852176666 255 255 255
4.20059061050415 2.1738367080688477 -0.47228601574897766 255 255 255
8.384422302246094 4.16317892074585 -0.43490734696388245 255 255 255
8.888115882873535 3.8536055088043213 -0.8080153465270996 255 255 255
20.047348022460938 -7.020012378692627 -0.5390241146087646 255 255 255
18.436294555664062 -9.327872276306152 -1.1922647953033447 255 255 255
3.2017688751220703 2.209524631500244 -0.8214772343635559 255 255 255
14.068546295166016 -2.8816885948181152 -1.5636484622955322 255 255 255
11.599111557006836 -7.438926696777344 -0.25417256355285645 255 255 255
10.29963493347168 6.81010103225708 0.30784037709236145 255 255 255
7.586826801300049 -0.42938509583473206 -1.6050434112548828 255 255 255
15.3873872756958 7.486323833465576 0.21365730464458466 255 255 255
9.17883586883545 -2.661508083343506 -1.704991340637207 255 255 255
6.975254535675049 1.5746947526931763 -1.6550413370132446 255 255 255
6.435497283935547 4.751094341278076 0.33344122767448425 255 255 255
6.3363542556762695 5.044919967651367 0.45303311944007874 255 255 255
11.784480094909668 -7.342447757720947 0.2634284198284149 255 255 255
21.62849235534668 -0.4903726577758789 0.96863853931427 255 255 255
14.914824485778809 -0.3905700147151947 -1.495040774345398 255 255 255
25.91778564453125 -8.417389869689941 -1.6536376476287842 255 255 255
22.8936710357666 0.1482343077659607 -0.06239819899201393 255 255 255
10.026816368103027 4.275708198547363 -0.041115060448646545 255 255 255
11.931024551391602 5.398531436920166 -0.8436927199363708 255 255 255
10.134316444396973 5.47045373916626 -0.10887030512094498 255 255 255
9.864726066589355 -3.882385730743408 -1.660600185394287 255 255 255
27.6717586517334 -12.047431945800781 -0.5523489713668823 255 255 255
17.769638061523438 -2.5841174125671387 -1.6259043216705322 255 255 255
7.479920387268066 0.864625871181488 -1.110498309135437 255 255 255
6.518248081207275 4.769712448120117 0.33907830715179443 255 255 255
6.1026291847229 4.945085525512695 0.190786212682724 255 255 255
6.137958526611328 4.807931423187256 0.10756763815879822 255 255 255
15.043436050415039 -0.5894132852554321 -1.5217742919921875 255 255 255
5.064949035644531 1.8969018459320068 -1.1434406042099 255 255 255
32.282474517822266 -5.136544227600098 -0.4655463397502899 255 255 255
6.363848686218262 2.0131032466888428 -0.9531575441360474 255 255 255
8.633138656616211 -1.7315757274627686 -1.6614433526992798 255 255 255
5.232342720031738 -3.1317460536956787 -1.0007351636886597 255 255 255
18.80978012084961 -6.997079849243164 -1.829641580581665 255 255 255
19.67606544494629 -9.590310096740723 -1.055198311805725 255 255 255
6.642977714538574 -0.5105136632919312 -1.6167857646942139 255 255 255
4.330381393432617 1.914174199104309 -0.8029768466949463 255 255 255
18.44548797607422 0.8948540687561035 -0.827039897441864 255 255 255
9.9994535446167 -1.6899374723434448 -1.7013171911239624 255 255 255
23.500137329101562 -6.045381546020508 -1.6055235862731934 255 255 255
17.61943817138672 -6.8298749923706055 -1.860656976699829 255 255 255
5.9225850105285645 -2.6319284439086914 -1.3803120851516724 255 255 255
4.304094314575195 2.0124521255493164 -0.8580327033996582 255 255 255
5.037449359893799 1.968997597694397 -1.1229526996612549 255 255 255
17.758832931518555 2.5372822284698486 0.6127001643180847 255 255 255
7.924015522003174 -0.2557317614555359 -1.6938375234603882 255 255 255
17.895021438598633 4.483108997344971 0.5810388326644897 255 255 255
18.0289249420166 2.102665662765503 0.6101147532463074 255 255 255
12.426078796386719 5.506117820739746 -0.9298503398895264 255 255 255
6.068299293518066 4.6980061531066895 0.29717421531677246 255 255 255
6.945481777191162 1.2608088254928589 -0.6940358281135559 255 255 255
18.796218872070312 0.9310563206672668 -0.21907691657543182 255 255 255
9.471345901489258 0.4738675653934479 -1.6224251985549927 255 255 255
13.49091911315918 0.333649605512619 -1.1500020027160645 255 255 255
9.577324867248535 3.633817672729492 -0.9291620254516602 255 255 255
7.796195983886719 0.8242915868759155 -1.6252893209457397 255 255 255
17.77376365661621 2.2993693351745605 0.6313794255256653 255 255 255
6.328711986541748 4.806392669677734 0.09967782348394394 255 255 255
7.432431221008301 0.7294577956199646 -1.664172649383545 255 255 255
8.15137767791748 -1.367078185081482 -1.679333209991455 255 255 255
19.498245239257812 -9.619071006774902 -0.6653125286102295 255 255 255
9.258978843688965 0.4557727873325348 -1.187111735343933 255 255 255
3.4287710189819336 2.432464599609375 -0.17582449316978455 255 255 255
6.826456546783447 -1.3592480421066284 -1.7614022493362427 255 255 255
13.414640426635742 7.135629177093506 -0.4356057047843933 255 255 255
7.575043201446533 0.5631288290023804 -1.740981101989746 255 255 255
17.776321411132812 -9.433204650878906 -0.7396625280380249 255 255 255
5.360775470733643 -2.8144469261169434 -1.0722434520721436 255 255 255
23.18548011779785 2.3789193630218506 -0.49076199531555176 255 255 255
28.263887405395508 0.44753044843673706 -0.14412201941013336 255 255 255
5.385691165924072 -3.147336006164551 0.2595478594303131 255 255 255
6.412698268890381 -0.6453486680984497 -1.738646388053894 255 255 255
6.798608779907227 1.9109160900115967 -0.6471599340438843 255 255 255
10.53400993347168 -1.1616251468658447 -1.6882253885269165 255 255 255
8.8599271774292 3.785904884338379 -0.8791571855545044 255 255 255
18.02710723876953 5.968789577484131 -0.015261304564774036 255 255 255
6.041900634765625 -4.052731513977051 -0.6789377927780151 255 255 255
3.2509498596191406 2.394137382507324 -0.2598041296005249 255 255 255
10.532544136047363 -3.5760889053344727 -1.7748216390609741 255 255 255
8.365647315979004 1.4539254903793335 -0.10107704252004623 255 255 255
2.972669839859009 2.4588682651519775 -0.1944238543510437 255 255 255
10.592530250549316 6.595800876617432 0.4025278687477112 255 255 255
8.237146377563477 0.1361008584499359 -1.6706576347351074 255 255 255
6.545077323913574 1.9909995794296265 -0.7267507314682007 255 255 255
19.243133544921875 5.7839155197143555 -0.18741475045681 255 255 255
14.786499977111816 -8.249039649963379 0.22682355344295502 255 255 255
6.236828327178955 4.95475959777832 0.38182076811790466 255 255 255
15.830039024353027 -1.4412628412246704 -1.4658006429672241 255 255 255
13.258345603942871 0.553615152835846 -0.45541051030158997 255 255 255
11.064746856689453 -8.010783195495605 0.18419115245342255 255 255 255
13.977580070495605 -5.9983320236206055 -1.6590278148651123 255 255 255
6.67213249206543 1.1720497608184814 -1.3618087768554688 255 255 255
18.253658294677734 5.702630043029785 -0.7006331086158752 255 255 255
15.998299598693848 -2.599677801132202 -1.5753861665725708 255 255 255
9.49096393585205 -0.20471835136413574 -1.5749900341033936 255 255 255
14.165450096130371 -5.159193515777588 -1.7017040252685547 255 255 255
24.839202880859375 -6.2937092781066895 -1.5830340385437012 255 255 255
11.092896461486816 -3.6981189250946045 -1.7823905944824219 255 255 255
7.457769870758057 -1.7482774257659912 -1.6712948083877563 255 255 255
15.090209007263184 -8.537294387817383 -0.16616515815258026 255 255 255
19.974777221679688 -7.526418685913086 -1.7809966802597046 255 255 255
14.381574630737305 9.260171890258789 -0.33561769127845764 255 255 255
17.45374870300293 2.714986562728882 0.6150294542312622 255 255 255
6.347436904907227 1.417915940284729 -1.0736393928527832 255 255 255
27.75775909423828 -1.3752450942993164 -0.4246498942375183 255 255 255
8.271257400512695 1.5517100095748901 -0.0783596783876419 255 255 255
24.564598083496094 -9.887227058410645 0.6936514377593994 255 255 255
8.386643409729004 -1.4813871383666992 -1.674163579940796 255 255 255
40.09161376953125 -9.858498573303223 -1.3013865947723389 255 255 255
6.6115241050720215 1.8278419971466064 -0.746562123298645 255 255 255
11.804427146911621 -7.242972373962402 0.12358222156763077 255 255 255
8.942193031311035 3.7567200660705566 -0.861089289188385 255 255 255
10.342660903930664 -0.22674496471881866 -1.6435590982437134 255 255 255
6.5831170082092285 1.2449487447738647 -1.6460148096084595 255 255 255
2.955498456954956 2.3169491291046143 -0.6899929642677307 255 255 255
10.610124588012695 -2.0723960399627686 -1.709069848060608 255 255 255
5.221916675567627 -3.188328742980957 -1.0599937438964844 255 255 255
17.37620735168457 -5.8954176902771 -1.691347599029541 255 255 255
5.229235649108887 -3.697294235229492 -0.75154709815979 255 255 255
4.5456671714782715 1.8537194728851318 -1.1355987787246704 255 255 255
12.975152969360352 -0.44493937492370605 -0.5923329591751099 255 255 255
8.716761589050293 1.5535048246383667 -0.5951242446899414 255 255 255
28.2872314453125 -8.519034385681152 -1.6827576160430908 255 255 255
19.48479461669922 -6.986012935638428 -1.0178406238555908 255 255 255
9.045730590820312 3.9582295417785645 -0.6548811793327332 255 255 255
4.546107292175293 1.8957489728927612 -0.8596673011779785 255 255 255
18.249038696289062 -7.750603199005127 -1.6987241506576538 255 255 255
40.053466796875 -5.49126672744751 -0.7309615015983582 255 255 255
15.616024017333984 8.435882568359375 -0.04072866961359978 255 255 255
7.106925010681152 1.1611310243606567 -1.108172059059143 255 255 255
10.647323608398438 4.0857744216918945 0.24222774803638458 255 255 255
16.465492248535156 10.700495719909668 0.18017807602882385 255 255 255
6.883388996124268 1.2430574893951416 -0.7097575664520264 255 255 255
24.221708297729492 -3.7480275630950928 -1.5957350730895996 255 255 255
7.1662068367004395 1.0044013261795044 -0.7767921090126038 255 255 255
17.498363494873047 2.096604108810425 -0.33698588609695435 255 255 255
21.43194007873535 -9.596942901611328 0.9927628636360168 255 255 255
7.60215950012207 -2.7304444313049316 -1.8105016946792603 255 255 255
21.127145767211914 0.7634814977645874 0.4553876519203186 255 255 255
5.292455673217773 -3.1614186763763428 -1.321515679359436 255 255 255
9.155996322631836 0.556230366230011 -0.7453783750534058 255 255 255
8.899186134338379 3.847909450531006 -0.2774319052696228 255 255 255
11.070948600769043 -7.362228870391846 -0.043228331953287125 255 255 255
5.663608074188232 -3.491405725479126 -0.3559231162071228 255 255 255
8.016626358032227 1.2677767276763916 -0.09083481878042221 255 255 255
12.584575653076172 -6.709188461303711 0.6242589354515076 255 255 255
5.019752025604248 1.9364023208618164 -0.765032172203064 255 255 255
8.127964973449707 0.6827598214149475 -1.634993076324463 255 255 255
6.61208438873291 1.2602629661560059 -1.2946548461914062 255 255 255
4.275789260864258 1.9946542978286743 -0.641248345375061 255 255 255
61.35568618774414 -22.29265785217285 0.0943736881017685 255 255 255
10.004834175109863 4.017197608947754 -0.2301434427499771 255 255 255
11.72603988647461 -7.774704456329346 0.6230159997940063 255 255 255
13.515837669372559 -3.4117987155914307 -1.720327615737915 255 255 255
7.043636798858643 1.6531943082809448 -1.6071056127548218 255 255 255
11.637939453125 -7.704937934875488 0.46512460708618164 255 255 255
12.059450149536133 5.107376575469971 -0.9649189710617065 255 255 255
13.208192825317383 0.4619746208190918 -1.0624433755874634 255 255 255
13.059588432312012 -0.6550708413124084 -0.7089114189147949 255 255 255
30.103145599365234 -12.643791198730469 -0.7903321981430054 255 255 255
16.15056610107422 -9.043386459350586 -0.2407047301530838 255 255 255
10.435620307922363 -7.352017879486084 0.15257731080055237 255 255 255
40.60728073120117 -16.067113876342773 0.29826462268829346 255 255 255
5.068696022033691 -3.7287614345550537 -0.9748404026031494 255 255 255
31.053321838378906 -2.669426202774048 -0.6227143406867981 255 255 255
14.205878257751465 4.708207607269287 -0.852321207523346 255 255 255
21.069902420043945 -3.0249030590057373 -1.5702464580535889 255 255 255
24.53803062438965 -10.945160865783691 -1.6892509460449219 255 255 255
6.468802452087402 1.5133519172668457 -0.9150857925415039 255 255 255
15.247703552246094 7.205380916595459 -0.20461860299110413 255 255 255
11.3662691116333 -7.703372001647949 -0.3826952576637268 255 255 255
9.056568145751953 4.804264068603516 0.505169153213501 255 255 255
19.76119613647461 5.5315985679626465 0.5843627452850342 255 255 255
11.950758934020996 -4.59259557723999 -1.7847293615341187 255 255 255
12.381003379821777 -7.274595737457275 0.5721834301948547 255 255 255
9.961862564086914 -2.702134132385254 -1.6593601703643799 255 255 255
18.257640838623047 -7.461155891418457 -1.8513060808181763 255 255 255
9.107332229614258 -0.21268807351589203 -1.7216161489486694 255 255 255
12.442525863647461 8.117945671081543 -0.49998846650123596 255 255 255
6.783836841583252 1.7701094150543213 -0.7748967409133911 255 255 255
24.507368087768555 -11.146900177001953 -0.4600999653339386 255 255 255
4.241733074188232 1.788235068321228 -0.558428168296814 255 255 255
11.10879898071289 -1.2849524021148682 -1.5840206146240234 255 255 255
6.971742153167725 0.9732368588447571 -1.0520868301391602 255 255 255
13.284249305725098 -0.9094156622886658 -1.6035866737365723 255 255 255
18.170156478881836 1.659936547279358 0.8262181282043457 255 255 255
10.13668155670166 3.590141534805298 -0.8389056324958801 255 255 255
6.183205604553223 5.165141582489014 0.23527061939239502 255 255 255
12.26947021484375 0.2178058922290802 -1.5580229759216309 255 255 255
17.45254135131836 3.935385227203369 0.11965247243642807 255 255 255
9.289971351623535 4.217141151428223 0.3049066960811615 255 255 255
9.028597831726074 3.8417084217071533 -0.2801443636417389 255 255 255
6.797524929046631 1.2530169486999512 -0.6777580380439758 255 255 255
11.090489387512207 -8.200800895690918 0.5285198092460632 255 255 255
5.621344566345215 -3.57755970954895 -0.4031204879283905 255 255 255
6.191535949707031 1.7990506887435913 -1.5879281759262085 255 255 255
10.499792098999023 -2.4484996795654297 -1.692047119140625 255 255 255
9.08035945892334 3.8708176612854004 -1.1530311107635498 255 255 255
6.498704433441162 1.8990416526794434 -0.8231840133666992 255 255 255
19.36263084411621 -6.870447635650635 -1.2064017057418823 255 255 255
5.964437484741211 1.3159830570220947 -1.5964750051498413 255 255 255
7.3745036125183105 0.2908982038497925 -1.6374847888946533 255 255 255
6.085722923278809 1.224748134613037 -1.5874555110931396 255 255 255
8.846412658691406 -6.678318977355957 -1.3719645738601685 255 255 255
7.004693508148193 4.799737930297852 0.0026048386935144663 255 255 255
6.644227027893066 4.693714618682861 0.16100093722343445 255 255 255
9.007669448852539 3.8050425052642822 -1.27641761302948 255 255 255
21.077939987182617 -10.150328636169434 -0.7795616984367371 255 255 255
18.464502334594727 6.022863864898682 -0.27470988035202026 255 255 255
6.411538124084473 1.8643938302993774 -0.9584510326385498 255 255 255
18.180070877075195 5.999375820159912 -0.030928777530789375 255 255 255
8.06179428100586 -1.586222529411316 -1.7516893148422241 255 255 255
15.773787498474121 6.80487585067749 -0.5045623183250427 255 255 255
16.954212188720703 -9.19356632232666 0.1286361962556839 255 255 255
5.440559387207031 -2.739307403564453 -0.9335797429084778 255 255 255
15.489347457885742 -4.173964023590088 -1.711358666419983 255 255 255
9.762797355651855 5.510223388671875 0.1859436184167862 255 255 255
3.3779401779174805 2.878910541534424 -0.20666426420211792 255 255 255
54.71881866455078 -4.436592102050781 1.8006945848464966 255 255 255
20.256742477416992 -5.088104248046875 -1.6326947212219238 255 255 255
21.066675186157227 1.1283317804336548 0.31712740659713745 255 255 255
9.699496269226074 -7.1301679611206055 -0.6035729050636292 255 255 255
10.635063171386719 6.743386268615723 0.6690486669540405 255 255 255
12.638014793395996 -0.29221466183662415 -1.5653809309005737 255 255 255
6.5584282875061035 -1.0220489501953125 -1.800942301750183 255 255 255
10.059236526489258 -7.371328353881836 -0.40502655506134033 255 255 255
3.729917526245117 2.0987889766693115 -0.9211851358413696 255 255 255
15.22265625 7.325512886047363 -0.47785308957099915 255 255 255
5.20168399810791 -3.1937551498413086 -1.2650530338287354 255 255 255
5.239861011505127 -3.286588668823242 -0.8290724158287048 255 255 255
7.141306400299072 -1.9938702583312988 -1.6605873107910156 255 255 255
9.994222640991211 -7.672365188598633 0.29111382365226746 255 255 255
6.420991897583008 4.838839530944824 -0.14650872349739075 255 255 255
21.517885208129883 -4.577376365661621 -1.5519766807556152 255 255 255
6.29850435256958 1.471259593963623 -1.2032324075698853 255 255 255
5.774219036102295 5.009521484375 0.07198143750429153 255 255 255
5.084596633911133 -3.611018657684326 -1.0310217142105103 255 255 255
8.564985275268555 -3.157292366027832 -1.7492257356643677 255 255 255
15.822420120239258 -7.927535057067871 0.3643895089626312 255 255 255
3.3239758014678955 2.192230224609375 -0.8619357943534851 255 255 255
9.4420166015625 3.5585484504699707 -1.0622363090515137 255 255 255
9.084556579589844 0.051079779863357544 -1.7220709323883057 255 255 255
6.318763732910156 0.9715903997421265 -1.609744668006897 255 255 255
15.475525856018066 6.84749698638916 -0.6659523844718933 255 255 255
13.679091453552246 -8.22386646270752 -0.3666187822818756 255 255 255
3.063523292541504 2.306422710418701 -0.852342426776886 255 255 255
23.49669647216797 2.4265499114990234 0.19869616627693176 255 255 255
6.439218521118164 2.097275495529175 -1.2191473245620728 255 255 255
10.049827575683594 6.1614789962768555 0.4465027153491974 255 255 255
6.684573650360107 1.2084475755691528 -1.0266474485397339 255 255 255
5.236875534057617 -3.8187296390533447 -0.8268775939941406 255 255 255
3.786499500274658 2.1188621520996094 -0.9793434143066406 255 255 255
13.529809951782227 -2.7570903301239014 -1.7024333477020264 255 255 255
34.136478424072266 -3.5714685916900635 -0.4262376129627228 255 255 255
6.724880218505859 1.5305423736572266 -1.5818610191345215 255 255 255
6.661375522613525 4.65640115737915 0.15812379121780396 255 255 255
6.717897415161133 1.627503752708435 -1.607773780822754 255 255 255
13.375531196594238 7.27927303314209 -0.3421737849712372 255 255 255
6.680465221405029 -0.10142941027879715 -1.6264410018920898 255 255 255
6.185875415802002 0.6463748216629028 -1.622620940208435 255 255 255
9.627365112304688 -7.303543567657471 0.12622782588005066 255 255 255
10.223055839538574 5.805927753448486 -0.5991659760475159 255 255 255
8.125831604003906 -1.5745755434036255 -1.735507845878601 255 255 255
23.362051010131836 -2.755268096923828 -1.3604503870010376 255 255 255
22.392677307128906 -10.788467407226562 0.1635761559009552 255 255 255
11.078166961669922 -4.225429058074951 -1.7249212265014648 255 255 255
16.20404624938965 -4.302807331085205 -1.6377270221710205 255 255 255
6.4244208335876465 5.015111446380615 0.45486336946487427 255 255 255
5.665992259979248 -3.1412429809570312 -0.8164020776748657 255 255 255
6.518548488616943 1.4375299215316772 -0.7900084853172302 255 255 255
13.549982070922852 0.05162937194108963 -1.4950335025787354 255 255 255
14.199549674987793 -7.952717304229736 0.4848955273628235 255 255 255
9.410589218139648 3.879920482635498 0.3618982434272766 255 255 255
15.075629234313965 4.531396865844727 -0.9757707118988037 255 255 255
3.1927475929260254 2.4557135105133057 -0.20953737199306488 255 255 255
20.45752716064453 5.438215732574463 -0.6044886708259583 255 255 255
6.366250514984131 1.933593988418579 -1.0938853025436401 255 255 255
20.369909286499023 0.5352522134780884 -0.28476592898368835 255 255 255
13.334577560424805 -0.8453502655029297 -0.7261757850646973 255 255 255
13.385298728942871 -1.3641109466552734 -1.7160674333572388 255 255 255
57.10712814331055 -6.320868015289307 0.7598338723182678 255 255 255
21.72988510131836 0.12439658492803574 0.7800120115280151 255 255 255
17.77065658569336 -2.4995436668395996 -1.4995121955871582 255 255 255
6.657149314880371 -0.8671470880508423 -1.7869309186935425 255 255 255
54.672332763671875 -4.891421794891357 1.0337576866149902 255 255 255
8.33169937133789 3.9546866416931152 -0.8948894739151001 255 255 255
6.39884614944458 1.4183725118637085 -1.0660619735717773 255 255 255
19.69556999206543 -8.561980247497559 -1.8827537298202515 255 255 255
7.3236260414123535 1.0223503112792969 -0.6549069881439209 255 255 255
9.914215087890625 -0.4017043709754944 -1.7002904415130615 255 255 255
45.13819885253906 -2.9663431644439697 0.39529457688331604 255 255 255
8.76192569732666 0.8360230922698975 -0.14110401272773743 255 255 255
21.218673706054688 1.5898001194000244 0.8716668486595154 255 255 255
32.228782653808594 -6.199928283691406 -1.2162890434265137 255 255 255
6.128632545471191 4.950345039367676 0.2895123362541199 255 255 255
29.28335189819336 -12.326149940490723 -1.3905256986618042 255 255 255
7.734706878662109 -2.0465505123138428 -1.6798566579818726 255 255 255
6.537595748901367 2.007686138153076 -0.664029061794281 255 255 255
7.134035587310791 1.8783396482467651 -0.4989525377750397 255 255 255
23.93941307067871 -7.95259952545166 -1.3993031978607178 255 255 255
44.26518249511719 -6.078095436096191 0.37551218271255493 255 255 255
14.028120040893555 -1.100584626197815 -0.8928166031837463 255 255 255
17.93559455871582 -9.196723937988281 -1.1018706560134888 255 255 255
6.596430778503418 2.2785589694976807 -0.7008747458457947 255 255 255
10.249967575073242 -7.442553520202637 -0.4015350043773651 255 255 255
21.296110153198242 0.8213493824005127 -0.04431656002998352 255 255 255
6.385925769805908 1.0192362070083618 -1.6385923624038696 255 255 255
10.43543815612793 5.510294437408447 -0.13433770835399628 255 255 255
19.573688507080078 -5.997130870819092 -1.6749759912490845 255 255 255
13.928214073181152 -6.897527694702148 0.6482709050178528 255 255 255
12.449173927307129 -1.0620063543319702 -1.6468212604522705 255 255 255
17.267688751220703 6.393348217010498 -0.11110404133796692 255 255 255
14.10688304901123 -7.9646172523498535 0.3026151955127716 255 255 255
6.398725986480713 2.258847713470459 -1.2327553033828735 255 255 255
24.258085250854492 -8.025976181030273 -0.4664158523082733 255 255 255
32.6318473815918 -4.640063285827637 -1.2721974849700928 255 255 255
6.605542182922363 2.0354747772216797 -0.7317417860031128 255 255 255
21.58760643005371 2.1804301738739014 0.6381650567054749 255 255 255
21.360218048095703 1.429078459739685 0.7836679220199585 255 255 255
17.903167724609375 4.790600776672363 0.4852837026119232 255 255 255
15.365224838256836 6.966303825378418 -0.29668939113616943 255 255 255
6.331211090087891 0.0881996676325798 -1.679213523864746 255 255 255
6.204042911529541 1.498724102973938 -1.6310601234436035 255 255 255
27.387483596801758 -6.820400714874268 -1.590887188911438 255 255 255
4.630538463592529 1.8936643600463867 -0.8808522820472717 255 255 255
6.626816749572754 -0.39781537652015686 -1.6376413106918335 255 255 255
21.000534057617188 -9.789660453796387 0.5369179844856262 255 255 255
16.814891815185547 -8.923269271850586 -1.0588124990463257 255 255 255
18.549386978149414 -9.633800506591797 -0.697272539138794 255 255 255
19.787389755249023 -6.8880085945129395 -1.7366398572921753 255 255 255
13.22463321685791 0.48570477962493896 -1.0923175811767578 255 255 255
15.579605102539062 8.281439781188965 -0.12044068425893784 255 255 255
12.584482192993164 7.5294671058654785 -0.6571876406669617 255 255 255
40.56620407104492 -10.691882133483887 -1.3463927507400513 255 255 255
10.807151794433594 -7.483794689178467 -0.7750672101974487 255 255 255
13.492703437805176 -0.41231438517570496 -0.40078726410865784 255 255 255
15.575766563415527 8.107240676879883 -0.24938900768756866 255 255 255
9.884883880615234 -7.124602317810059 -0.7545169591903687 255 255 255
24.361724853515625 -4.143721103668213 -1.5123555660247803 255 255 255
17.92761993408203 6.07113790512085 0.31043437123298645 255 255 255
6.926300048828125 1.9670381546020508 -1.6689893007278442 255 255 255
9.08714771270752 -6.784470081329346 -1.2978594303131104 255 255 255
8.331571578979492 -0.5096572637557983 -1.709348201751709 255 255 255
14.690018653869629 -2.394728422164917 -1.6544179916381836 255 255 255
6.532296180725098 0.39782342314720154 -1.7330191135406494 255 255 255
15.159713745117188 3.2479753494262695 0.4943843185901642 255 255 255
16.194971084594727 -3.589600086212158 -1.6940633058547974 255 255 255
17.840660095214844 2.874617576599121 0.405889093875885 255 255 255
9.280160903930664 0.4404447674751282 -0.4475921094417572 255 255 255
15.487098693847656 -8.592671394348145 -1.1267746686935425 255 255 255
10.533400535583496 -1.531876802444458 -1.7101863622665405 255 255 255
6.556689262390137 1.1027357578277588 -1.643831491470337 255 255 255
6.584390640258789 1.3168092966079712 -0.9185910224914551 255 255 255
10.485873222351074 -0.730641782283783 -1.6200510263442993 255 255 255
8.805622100830078 1.0889408588409424 -0.16013363003730774 255 255 255
9.638909339904785 4.487478733062744 0.4763048589229584 255 255 255
21.94786262512207 1.1324925422668457 0.9277429580688477 255 255 255
40.43824005126953 -16.822023391723633 0.673434317111969 255 255 255
8.92293643951416 0.49852150678634644 -1.0536646842956543 255 255 255
61.9479866027832 -22.553119659423828 2.031067371368408 255 255 255
14.075223922729492 -6.9899139404296875 0.7480359077453613 255 255 255
17.794713973999023 2.304921865463257 0.439905047416687 255 255 255
2.9668872356414795 2.572439670562744 -0.13656717538833618 255 255 255
33.8851203918457 -13.96716022491455 -0.8029106855392456 255 255 255
16.665416717529297 -8.923774719238281 -1.1208076477050781 255 255 255
7.41839075088501 -2.771341562271118 -1.8025026321411133 255 255 255
7.542253494262695 -1.529547095298767 -1.6380189657211304 255 255 255
13.542234420776367 -5.204471111297607 -1.7545605897903442 255 255 255
16.800508499145508 -3.291416645050049 -1.6149842739105225 255 255 255
10.385848999023438 0.017028434202075005 -1.5436749458312988 255 255 255
17.87665367126465 2.5187814235687256 -0.27053073048591614 255 255 255
4.366739749908447 1.9815573692321777 -1.034124732017517 255 255 255
12.540923118591309 -7.797737121582031 -0.8191424012184143 255 255 255
9.348074913024902 3.7748055458068848 -1.1446778774261475 255 255 255
9.347320556640625 1.4332071542739868 -0.6315957307815552 255 255 255
6.762234210968018 0.4052897095680237 -1.6785883903503418 255 255 255
14.094228744506836 -2.1779425144195557 -1.6734201908111572 255 255 255
6.201328754425049 -2.765446424484253 -1.3490928411483765 255 255 255
13.092077255249023 -0.08652860671281815 -0.5733151435852051 255 255 255
8.373741149902344 0.674335241317749 -0.8311349153518677 255 255 255
8.555610656738281 0.025182900950312614 -1.5630148649215698 255 255 255
23.721817016601562 0.20083671808242798 -0.11037448793649673 255 255 255
6.124488353729248 -4.0131378173828125 -0.7496547102928162 255 255 255
12.045833587646484 -4.180030822753906 -1.7076539993286133 255 255 255
37.909461975097656 -4.8852691650390625 -0.5489652752876282 255 255 255
2.8914787769317627 2.4164960384368896 -0.6183497309684753 255 255 255
10.240586280822754 -7.056158542633057 0.17340217530727386 255 255 255
18.284677505493164 5.953846454620361 0.5401646494865417 255 255 255
7.245378017425537 1.2001724243164062 -1.2177766561508179 255 255 255
18.248579025268555 6.020971298217773 -0.23590409755706787 255 255 255
54.74463653564453 -3.8573110103607178 1.8171401023864746 255 255 255
8.9271240234375 -0.09442134946584702 -1.6792943477630615 255 255 255
6.837390899658203 0.1693466454744339 -1.5876210927963257 255 255 255
6.219044208526611 5.1074676513671875 0.28473910689353943 255 255 255
5.1338582038879395 -3.76776385307312 -1.1822437047958374 255 255 255
8.020915031433105 1.413508415222168 -0.16215555369853973 255 255 255
8.278963088989258 -2.9205825328826904 -1.7244960069656372 255 255 255
13.955409049987793 -2.1481165885925293 -1.5990768671035767 255 255 255
10.484696388244629 -1.036190390586853 -1.6361699104309082 255 255 255
13.33605670928955 -0.8251579403877258 -1.3550461530685425 255 255 255
5.34227991104126 -2.9339118003845215 -0.8854529857635498 255 255 255
18.719879150390625 -2.1153616905212402 -1.5171866416931152 255 255 255
7.402281284332275 -3.1066834926605225 -0.9016068577766418 255 255 255
6.917782306671143 -0.8344000577926636 -1.7348599433898926 255 255 255
21.445119857788086 1.1419967412948608 0.5267869830131531 255 255 255
10.075891494750977 5.943549156188965 -0.5274070501327515 255 255 255
7.749715805053711 6.419984817504883 0.008863311260938644 255 255 255
4.5224432945251465 1.9372550249099731 -0.9085926413536072 255 255 255
8.033102989196777 1.3167203664779663 -1.6194392442703247 255 255 255
22.253446578979492 -6.844181060791016 -1.6159560680389404 255 255 255
22.45728874206543 -9.647229194641113 -1.739389419555664 255 255 255
21.36774253845215 0.29410991072654724 0.49884456396102905 255 255 255
5.548868179321289 -3.7127327919006348 -0.32485538721084595 255 255 255
5.32033634185791 -3.014617919921875 -0.8688706159591675 255 255 255
19.456401824951172 -9.588769912719727 -0.06992660462856293 255 255 255
22.707725524902344 -10.095787048339844 -0.1270589828491211 255 255 255
15.552413940429688 -4.8516154289245605 -1.653267502784729 255 255 255
11.217577934265137 -7.5231194496154785 0.41654837131500244 255 255 255
76.21977996826172 -12.700571060180664 2.3689115047454834 255 255 255
12.839165687561035 -7.316503524780273 0.5924848914146423 255 255 255
20.961462020874023 -8.469873428344727 -1.7802072763442993 255 255 255
3.9607129096984863 1.9583611488342285 -0.8983104228973389 255 255 255
21.214595794677734 -9.57906436920166 0.7838179469108582 255 255 255
75.71670532226562 -13.711492538452148 1.3962868452072144 255 255 255
6.288042068481445 1.5519341230392456 -1.2125422954559326 255 255 255
6.881743907928467 1.0936710834503174 -1.037779688835144 255 255 255
18.732101440429688 -9.40023422241211 -1.4279749393463135 255 255 255
7.139784336090088 1.0726993083953857 -0.8569358587265015 255 255 255
17.698898315429688 6.1941022872924805 -0.0579916387796402 255 255 255
22.154823303222656 -10.462736129760742 -1.1302766799926758 255 255 255
10.615458488464355 4.8393096923828125 0.36088141798973083 255 255 255
6.6057915687561035 1.3321212530136108 -0.7961781620979309 255 255 255
7.772093296051025 0.7865801453590393 -0.7950164079666138 255 255 255
6.411992073059082 1.3078056573867798 -0.9988054037094116 255 255 255
6.6649489402771 4.630972862243652 0.2341879904270172 255 255 255
12.531537055969238 -2.6707260608673096 -1.6835041046142578 255 255 255
18.592041015625 -9.533381462097168 -1.1105804443359375 255 255 255
6.464713096618652 4.7684006690979 0.5083494186401367 255 255 255
12.606657981872559 -8.214643478393555 0.6227397322654724 255 255 255
40.86050796508789 -16.035280227661133 0.8968114256858826 255 255 255
23.932209014892578 -8.052118301391602 -0.910420835018158 255 255 255
74.03600311279297 -18.286569595336914 0.10020992904901505 255 255 255
9.594849586486816 0.4111540913581848 -1.1795693635940552 255 255 255
12.011406898498535 -1.5847947597503662 -1.6594204902648926 255 255 255
6.395976543426514 4.840485095977783 -0.22664906084537506 255 255 255
6.607217788696289 5.42380428314209 -0.07267165184020996 255 255 255
5.380816459655762 -2.9944825172424316 -1.3902397155761719 255 255 255
14.186222076416016 -0.9710567593574524 -0.6219022870063782 255 255 255
6.391534805297852 1.8603827953338623 -0.9674649238586426 255 255 255
7.851337909698486 -3.3328208923339844 -1.8008619546890259 255 255 255
5.258808612823486 -2.9469165802001953 -0.968981146812439 255 255 255
13.296199798583984 -0.6259971857070923 -1.3464105129241943 255 255 255
13.309717178344727 0.5969451665878296 -0.8051559925079346 255 255 255
7.596856594085693 -2.3261470794677734 -1.6903969049453735 255 255 255
3.211322784423828 2.496431589126587 -0.15198390185832977 255 255 255
3.4340755939483643 2.1785645484924316 -0.7049323320388794 255 255 255
13.233912467956543 6.157217025756836 -0.8945287466049194 255 255 255
3.780810594558716 2.028973340988159 -0.6789682507514954 255 255 255
30.564258575439453 -2.2516415119171143 0.12616853415966034 255 255 255
73.30302429199219 -11.129054069519043 2.229450225830078 255 255 255
13.315337181091309 -0.7019199132919312 -1.4621390104293823 255 255 255
17.91075325012207 2.44077467918396 -0.09657317399978638 255 255 255
18.464710235595703 1.1212444305419922 -0.37017062306404114 255 255 255
6.741923809051514 1.1694843769073486 -0.8469862341880798 255 255 255
11.48983383178711 -7.6999311447143555 0.7567442655563354 255 255 255
14.826092720031738 -4.3494415283203125 -1.695163607597351 255 255 255
9.750444412231445 0.31313538551330566 -1.58131742477417 255 255 255
6.517232894897461 1.8158186674118042 -1.3074921369552612 255 255 255
12.625690460205078 8.494281768798828 -0.5607840418815613 255 255 255
9.206941604614258 -6.785646915435791 -1.4579204320907593 255 255 255
5.2227888107299805 -2.8612751960754395 -1.222102403640747 255 255 255
8.321341514587402 -0.8322673439979553 -1.7053855657577515 255 255 255
10.88680362701416 -7.364984035491943 0.05621527135372162 255 255 255
10.132423400878906 5.873226165771484 -0.37708228826522827 255 255 255
15.359112739562988 6.888650894165039 -0.41947096586227417 255 255 255
6.797307014465332 0.10659873485565186 -1.5831737518310547 255 255 255
5.197371006011963 -3.568049669265747 -0.86203533411026 255 255 255
11.104927062988281 -3.6004626750946045 -1.7608861923217773 255 255 255
11.081859588623047 -7.9166483879089355 0.05592384189367294 255 255 255
3.643747329711914 2.1378769874572754 -1.020077109336853 255 255 255
21.92919158935547 0.009966686367988586 0.45542964339256287 255 255 255
6.501986980438232 4.575801849365234 0.5137320160865784 255 255 255
10.552639961242676 -7.69769811630249 0.35181230306625366 255 255 255
12.76280403137207 -7.373416423797607 0.39696016907691956 255 255 255
6.870274543762207 1.2488110065460205 -1.4562476873397827 255 255 255
7.032485485076904 1.6190402507781982 -1.7075608968734741 255 255 255
8.524980545043945 -3.102005958557129 -1.710903525352478 255 255 255
21.56327247619629 1.7757302522659302 0.5279718041419983 255 255 255
10.037527084350586 4.074979782104492 -0.25333231687545776 255 255 255
56.0311393737793 -17.136810302734375 -0.2463984191417694 255 255 255
21.153955459594727 0.9504020810127258 -0.11360248178243637 255 255 255
13.959665298461914 -8.290568351745605 -0.804328441619873 255 255 255
8.030685424804688 1.288050651550293 -1.5836700201034546 255 255 255
17.80518341064453 4.22810173034668 -0.11665365844964981 255 255 255
14.103468894958496 -1.9418892860412598 -1.705952763557434 255 255 255
6.1811676025390625 5.057781219482422 0.27409860491752625 255 255 255
5.1337890625 -3.6684505939483643 -1.4098138809204102 255 255 255
8.697880744934082 1.7732869386672974 -0.5009074807167053 255 255 255
4.859057426452637 1.95369553565979 -1.1786158084869385 255 255 255
6.458351135253906 1.4309712648391724 -1.241325855255127 255 255 255
9.803563117980957 -7.191949367523193 -0.1051248162984848 255 255 255
6.702417373657227 2.3888351917266846 -1.3917430639266968 255 255 255
3.0696420669555664 2.326432943344116 -0.7293736934661865 255 255 255
14.653609275817871 -8.258174896240234 -0.8774721026420593 255 255 255
6.799496650695801 -0.06727080792188644 -1.6107935905456543 255 255 255
16.042356491088867 -3.6364026069641113 -1.635398268699646 255 255 255
19.106159210205078 5.753103733062744 0.4435665011405945 255 255 255
7.818390846252441 -3.236825942993164 -1.7228645086288452 255 255 255
3.054095506668091 2.477372407913208 -0.24810972809791565 255 255 255
9.057350158691406 4.833279132843018 0.5517423152923584 255 255 255
5.995172023773193 -3.0110056400299072 -0.3352321684360504 255 255 255
7.9973464012146 -0.25864821672439575 -1.64625883102417 255 255 255
10.985895156860352 -4.305192470550537 -1.7087690830230713 255 255 255
26.717411041259766 -4.512162685394287 -1.5233103036880493 255 255 255
18.67311668395996 2.008655309677124 0.4335423707962036 255 255 255
17.144481658935547 6.321406841278076 -0.18704640865325928 255 255 255
6.261649131774902 4.913681507110596 -0.2527986168861389 255 255 255
9.175819396972656 -6.851377964019775 -1.1263413429260254 255 255 255
6.686307430267334 4.976535320281982 -0.30758506059646606 255 255 255
10.378518104553223 -7.078129768371582 -0.1997659057378769 255 255 255
3.1687636375427246 2.6761832237243652 -0.12013320624828339 255 255 255
6.0389723777771 4.971155643463135 0.027246447280049324 255 255 255
44.73740768432617 -4.9019904136657715 0.31541046500205994 255 255 255
3.6441636085510254 2.6510627269744873 -0.14792953431606293 255 255 255
19.184234619140625 5.670607566833496 0.4527924656867981 255 255 255
23.89664649963379 -7.968906879425049 -1.0806338787078857 255 255 255
6.282876014709473 1.4370492696762085 -1.076751708984375 255 255 255
23.92364501953125 -8.016655921936035 -0.8721966743469238 255 255 255
19.136371612548828 5.7013630867004395 0.26005131006240845 255 255 255
11.836935997009277 -7.52470588684082 0.08123220503330231 255 255 255
14.47858715057373 -0.36422038078308105 -1.373517632484436 255 255 255
15.7013521194458 8.512772560119629 0.23547960817813873 255 255 255
10.762380599975586 6.029985427856445 -0.8853076696395874 255 255 255
19.04442596435547 -9.575311660766602 -1.0040961503982544 255 255 255
3.3371973037719727 2.8377418518066406 -0.10384469479322433 255 255 255
20.411046981811523 -10.342477798461914 0.024386471137404442 255 255 255
15.291729927062988 -8.436454772949219 -0.9582185745239258 255 255 255
7.999028205871582 -2.5035858154296875 -1.7042171955108643 255 255 255
13.125021934509277 0.0010539285140112042 -0.7588477730751038 255 255 255
17.95431900024414 3.227161407470703 0.3407614529132843 255 255 255
12.996479034423828 -0.24291953444480896 -0.8685261607170105 255 255 255
3.7305755615234375 2.0942862033843994 -0.7758594155311584 255 255 255
10.098536491394043 5.607358932495117 -0.38660019636154175 255 255 255
6.9268646240234375 -0.9961346983909607 -1.690822720527649 255 255 255
5.080474853515625 -3.818499803543091 -1.3471249341964722 255 255 255
62.70210266113281 -21.796937942504883 0.39587587118148804 255 255 255
4.790270805358887 1.8144737482070923 -1.1094350814819336 255 255 255
2.963860511779785 2.3953466415405273 -0.1730334609746933 255 255 255
13.766838073730469 -0.09980425983667374 -1.5596582889556885 255 255 255
23.533226013183594 -0.01451155822724104 0.4742054343223572 255 255 255
13.15909194946289 0.25808635354042053 -0.5771191716194153 255 255 255
9.624466896057129 -1.2115579843521118 -1.7008001804351807 255 255 255
15.665605545043945 8.261930465698242 -0.23958653211593628 255 255 255
15.233942985534668 7.536780834197998 -0.47294411063194275 255 255 255
12.047287940979004 -7.5060930252075195 0.6867597699165344 255 255 255
13.985753059387207 8.204141616821289 -0.4487208127975464 255 255 255
3.578155755996704 2.134525775909424 -0.7784146666526794 255 255 255
13.597665786743164 -4.665231704711914 -1.7724006175994873 255 255 255
6.8059773445129395 4.804318428039551 -0.22814276814460754 255 255 255
23.449806213378906 -10.861122131347656 -0.8223757743835449 255 255 255
40.25334167480469 -17.759143829345703 0.08380776643753052 255 255 255
21.56231689453125 1.5438543558120728 0.002791220787912607 255 255 255
6.547189712524414 4.626425266265869 0.285482257604599 255 255 255
8.203714370727539 0.9927869439125061 -0.6861879825592041 255 255 255
6.490650177001953 1.8708868026733398 -0.8365747332572937 255 255 255
25.085460662841797 -11.209301948547363 -1.6941157579421997 255 255 255
7.722209930419922 -2.3964927196502686 -1.6957147121429443 255 255 255
3.463479995727539 2.4087369441986084 -0.7046841979026794 255 255 255
10.473786354064941 -6.987483978271484 -0.057694725692272186 255 255 255
