ply
format ascii 1.0
element vertex 688
property float x
property float y
property float z
property uchar red
property uchar green
property uchar blue
end_header
8.147178649902344 1.5957592725753784 -0.13311336934566498 255 255 255
8.164957046508789 1.5065096616744995 -0.07173211127519608 255 255 255
8.199012756347656 1.6080585718154907 -0.07490389794111252 255 255 255
8.099508285522461 1.6816234588623047 -0.15827466547489166 255 255 255
8.172840118408203 1.5992486476898193 -0.15787373483181 255 255 255
8.210726737976074 1.6022772789001465 -0.04739871248602867 255 255 255
8.219742774963379 1.6997623443603516 -0.1034693643450737 255 255 255
8.17263126373291 1.7314507961273193 -0.14476278424263 255 255 255
8.180726051330566 1.830321192741394 -0.15285715460777283 255 255 255
8.148923873901367 1.7992373704910278 -0.08685218542814255 255 255 255
8.167450904846191 1.7989786863327026 -0.08778215199708939 255 255 255
20.67943000793457 4.793234348297119 -0.5304708480834961 255 255 255
20.627296447753906 4.684731483459473 -0.5989021062850952 255 255 255
20.626434326171875 4.839687347412109 -0.5812762379646301 255 255 255
20.564014434814453 4.850804805755615 -0.5881276726722717 255 255 255
20.48680877685547 4.931577682495117 -0.6016602516174316 255 255 255
20.36528205871582 5.039449214935303 -0.5969206094741821 255 255 255
20.259471893310547 4.929975509643555 -0.5988560318946838 255 255 255
20.09466552734375 4.9165802001953125 -0.5664522647857666 255 255 255
20.09902572631836 5.001886367797852 -0.5955548286437988 255 255 255
19.884817123413086 5.064530849456787 -0.5896551609039307 255 255 255
19.848005294799805 5.114645957946777 -0.5525729060173035 255 255 255
19.61338996887207 5.044582843780518 -0.6098641753196716 255 255 255
19.525068283081055 5.187178611755371 -0.5636804699897766 255 255 255
19.381921768188477 5.295793533325195 -0.532319188117981 255 255 255
19.3720760345459 5.2387261390686035 -0.6227332353591919 255 255 255
19.31317901611328 5.236514568328857 -0.5394795536994934 255 255 255
19.17208480834961 5.328487873077393 -0.5467203259468079 255 255 255
19.09957504272461 5.414758205413818 -0.5933642983436584 255 255 255
18.96476173400879 5.492105007171631 -0.5589126944541931 255 255 255
18.865495681762695 5.475408554077148 -0.5326563119888306 255 255 255
18.72332000732422 5.440781116485596 -0.5671747326850891 255 255 255
18.666582107543945 5.514418125152588 -0.4649190902709961 255 255 255
18.578603744506836 5.570062160491943 -0.5887443423271179 255 255 255
18.58829689025879 5.536680698394775 -0.5383519530296326 255 255 255
18.413957595825195 5.562664031982422 -0.5109999179840088 255 255 255
18.340482711791992 5.5225348472595215 -0.5149076581001282 255 255 255
18.168949127197266 5.659757137298584 -0.5371131300926208 255 255 255
18.114032745361328 5.58689022064209 -0.43219342827796936 255 255 255
18.015010833740234 5.744682788848877 -0.5181914567947388 255 255 255
17.983905792236328 5.795073986053467 -0.4963720142841339 255 255 255
13.0068998336792 4.2139739990234375 -0.33357807993888855 255 255 255
12.902567863464355 4.187977313995361 -0.3810299336910248 255 255 255
13.033020973205566 4.263769626617432 -0.21860773861408234 255 255 255
13.041732788085938 4.333473205566406 -0.4259501099586487 255 255 255
13.217493057250977 4.363735198974609 -0.3144327998161316 255 255 255
13.186295509338379 4.425065994262695 -0.2684548497200012 255 255 255
13.285746574401855 4.510537624359131 -0.3449074327945709 255 255 255
13.380229949951172 4.747086048126221 -0.3422447144985199 255 255 255
13.308709144592285 4.626668930053711 -0.30699393153190613 255 255 255
13.065080642700195 4.523197650909424 -0.33868205547332764 255 255 255
13.331408500671387 4.688299655914307 -0.23304829001426697 255 255 255
12.649168014526367 4.448105335235596 -0.26027539372444153 255 255 255
12.957386016845703 4.671080112457275 -0.3532560169696808 255 255 255
12.922135353088379 4.684589385986328 -0.3153388798236847 255 255 255
16.685056686401367 6.133720397949219 -0.43826645612716675 255 255 255
10.372217178344727 3.792147636413574 -0.2915673553943634 255 255 255
10.216227531433105 3.795722723007202 -0.1904369741678238 255 255 255
10.201827049255371 3.8372855186462402 -0.18271121382713318 255 255 255
10.136245727539062 3.881110668182373 -0.24704833328723907 255 255 255
10.201233863830566 3.838884115219116 -0.12246313691139221 255 255 255
10.241133689880371 3.9577484130859375 -0.31020182371139526 255 255 255
10.15307331085205 3.875948429107666 -0.2191438376903534 255 255 255
16.062744140625 6.339028835296631 -0.47426190972328186 255 255 255
16.02372932434082 6.4132513999938965 -0.4372890889644623 255 255 255
15.909778594970703 6.378110408782959 -0.4525313973426819 255 255 255
15.809247016906738 6.508086681365967 -0.47178950905799866 255 255 255
15.74533748626709 6.447951316833496 -0.43833521008491516 255 255 255
15.704510688781738 6.4902191162109375 -0.39587390422821045 255 255 255
15.599281311035156 6.5358805656433105 -0.536476194858551 255 255 255
15.572131156921387 6.6801066398620605 -0.43742963671684265 255 255 255
15.455727577209473 6.495956897735596 -0.4948957562446594 255 255 255
15.422865867614746 6.539585590362549 -0.4186926484107971 255 255 255
15.435800552368164 6.516195774078369 -0.46312931180000305 255 255 255
15.499039649963379 6.709733486175537 -0.3744295537471771 255 255 255
15.512870788574219 6.8248820304870605 -0.4768354892730713 255 255 255
15.482648849487305 6.844180583953857 -0.4850819706916809 255 255 255
15.45451831817627 6.867613315582275 -0.40304818749427795 255 255 255
15.53948974609375 6.884633541107178 -0.43328455090522766 255 255 255
15.55624008178711 7.027970790863037 -0.4817493259906769 255 255 255
15.567413330078125 7.081324577331543 -0.424427330493927 255 255 255
15.536733627319336 7.077054023742676 -0.4774053990840912 255 255 255
15.426072120666504 7.206000804901123 -0.4419894516468048 255 255 255
15.374100685119629 7.127251148223877 -0.4475973844528198 255 255 255
14.352824211120605 6.745941162109375 -0.4034760296344757 255 255 255
13.994281768798828 6.695572376251221 -0.3701387047767639 255 255 255
13.869783401489258 6.644209384918213 -0.47516995668411255 255 255 255
13.900670051574707 6.670515537261963 -0.3336324095726013 255 255 255
13.839890480041504 6.748404026031494 -0.39753368496894836 255 255 255
15.733783721923828 7.698570728302002 -0.47850778698921204 255 255 255
14.166727066040039 6.890538692474365 -0.3771223723888397 255 255 255
13.554413795471191 6.604058265686035 -0.33643966913223267 255 255 255
13.52835464477539 6.631596565246582 -0.49951714277267456 255 255 255
13.651488304138184 6.810122013092041 -0.34796881675720215 255 255 255
10.305097579956055 5.241482734680176 -0.18903470039367676 255 255 255
14.021262168884277 7.125361919403076 -0.37902528047561646 255 255 255
10.319366455078125 5.279373645782471 -0.2303849756717682 255 255 255
10.344897270202637 5.313444137573242 -0.28291019797325134 255 255 255
10.294404029846191 5.325555324554443 -0.21043050289154053 255 255 255
10.127259254455566 5.360710620880127 -0.21169434487819672 255 255 255
10.227020263671875 5.37480354309082 -0.2160867303609848 255 255 255
13.461172103881836 7.111413955688477 -0.37065085768699646 255 255 255
10.304478645324707 5.5684075355529785 -0.3032204806804657 255 255 255
10.349876403808594 5.604033946990967 -0.25825923681259155 255 255 255
10.26712703704834 5.58198356628418 -0.17444643378257751 255 255 255
14.190301895141602 7.894153118133545 -0.3622745871543884 255 255 255
14.211071968078613 7.7996368408203125 -0.4112068712711334 255 255 255
14.1149320602417 7.826363563537598 -0.4041958153247833 255 255 255
14.229964256286621 7.936462879180908 -0.3717188835144043 255 255 255
13.831151008605957 7.712039947509766 -0.4109829068183899 255 255 255
13.838379859924316 7.8522820472717285 -0.4228161573410034 255 255 255
13.723860740661621 7.971131324768066 -0.4364761710166931 255 255 255
14.036011695861816 8.060257911682129 -0.3959357440471649 255 255 255
13.851357460021973 8.103632926940918 -0.44166526198387146 255 255 255
13.835247993469238 8.053861618041992 -0.39730411767959595 255 255 255
13.815912246704102 8.059755325317383 -0.3067491352558136 255 255 255
13.70925235748291 8.171533584594727 -0.4815507233142853 255 255 255
13.954102516174316 8.327250480651855 -0.3894088864326477 255 255 255
13.643392562866211 8.266986846923828 -0.43218883872032166 255 255 255
13.661543846130371 8.245254516601562 -0.4213283658027649 255 255 255
13.676177024841309 8.181854248046875 -0.4205162525177002 255 255 255
13.701156616210938 8.346841812133789 -0.4846254587173462 255 255 255
13.647624969482422 8.426692962646484 -0.4205123782157898 255 255 255
13.84697151184082 8.503026008605957 -0.427617609500885 255 255 255
13.905122756958008 8.649877548217773 -0.41380980610847473 255 255 255
13.83919906616211 8.7056884765625 -0.41953349113464355 255 255 255
13.869498252868652 8.770557403564453 -0.4598281681537628 255 255 255
13.918961524963379 8.779486656188965 -0.45300036668777466 255 255 255
7.2289557456970215 4.580048561096191 -0.09368099272251129 255 255 255
7.046599388122559 4.447257995605469 -0.14264272153377533 255 255 255
6.928534030914307 4.432661056518555 -0.11024977266788483 255 255 255
6.995064735412598 4.5785722732543945 -0.13233207166194916 255 255 255
6.87165641784668 4.558599948883057 -0.04742470383644104 255 255 255
6.899252891540527 4.554677486419678 -0.08298888057470322 255 255 255
6.935314655303955 4.562631130218506 -0.07925765216350555 255 255 255
6.7814459800720215 4.612117290496826 -0.05830742046236992 255 255 255
6.843663215637207 4.562129497528076 -0.1098192036151886 255 255 255
6.776449680328369 4.615254878997803 -0.14927515387535095 255 255 255
6.785733222961426 4.627350807189941 -0.10900137573480606 255 255 255
6.745337963104248 4.721363544464111 -0.1278640776872635 255 255 255
6.706760406494141 4.554381847381592 -0.11550392210483551 255 255 255
6.720242023468018 4.594241619110107 -0.041564300656318665 255 255 255
6.610659599304199 4.532885551452637 -0.1800432652235031 255 255 255
6.577692985534668 4.687161445617676 -0.07115399837493896 255 255 255
6.583949565887451 4.591094970703125 -0.17850543558597565 255 255 255
6.554217338562012 4.651594638824463 -0.14295630156993866 255 255 255
6.524377346038818 4.66177225112915 -0.07579746842384338 255 255 255
6.459773540496826 4.587162494659424 -0.20466826856136322 255 255 255
6.446633815765381 4.651494979858398 -0.04358263313770294 255 255 255
6.434415340423584 4.726046562194824 -0.04346838593482971 255 255 255
6.445919990539551 4.704620361328125 -0.10246876627206802 255 255 255
6.409610748291016 4.8128767013549805 -0.06160444766283035 255 255 255
6.4162092208862305 4.728903293609619 -0.15208758413791656 255 255 255
6.481504917144775 4.762588024139404 -0.08971291035413742 255 255 255
6.595110893249512 4.966533660888672 -0.11585165560245514 255 255 255
6.524243354797363 4.838758945465088 -0.09192859381437302 255 255 255
6.355632305145264 4.797427654266357 -0.15593385696411133 255 255 255
6.286773681640625 4.831813812255859 -0.14811734855175018 255 255 255
6.528460502624512 4.984218120574951 -0.015516369603574276 255 255 255
6.162040710449219 4.675137042999268 -0.13827483355998993 255 255 255
6.4186625480651855 4.914239406585693 -0.05909058079123497 255 255 255
7.859890460968018 6.182071685791016 -0.2964588403701782 255 255 255
7.665765285491943 6.10147762298584 -0.1250872015953064 255 255 255
7.587245941162109 5.9774394035339355 -0.18125753104686737 255 255 255
7.56536865234375 6.020510196685791 -0.08895169198513031 255 255 255
7.549180507659912 6.021691799163818 -0.2510613799095154 255 255 255
7.620362758636475 6.2203850746154785 -0.20861242711544037 255 255 255
6.471610069274902 5.320120811462402 -0.10037671029567719 255 255 255
7.6984968185424805 6.158187389373779 -0.0901821032166481 255 255 255
5.951044082641602 4.845153331756592 -0.17549018561840057 255 255 255
5.947634696960449 4.901026725769043 -0.07794936746358871 255 255 255
5.971439361572266 4.962441921234131 -0.02415633015334606 255 255 255
5.9602837562561035 4.886180877685547 -0.03322693705558777 255 255 255
10.49507999420166 -8.574894905090332 -0.31772252917289734 255 255 255
9.760381698608398 -8.023223876953125 -0.25538912415504456 255 255 255
9.691631317138672 -7.954315185546875 -0.3014538884162903 255 255 255
10.534918785095215 -8.562984466552734 -0.3192370533943176 255 255 255
10.669888496398926 -8.65052604675293 -0.3118683695793152 255 255 255
10.493840217590332 -8.357035636901855 -0.25539618730545044 255 255 255
10.446697235107422 -8.362116813659668 -0.3256847560405731 255 255 255
10.538262367248535 -8.277412414550781 -0.31523993611335754 255 255 255
10.219195365905762 -8.065787315368652 -0.2790175974369049 255 255 255
9.83099365234375 -7.710274696350098 -0.2346133291721344 255 255 255
9.842901229858398 -7.651067733764648 -0.32674774527549744 255 255 255
9.922691345214844 -7.691516399383545 -0.3437761962413788 255 255 255
9.890748977661133 -7.646075248718262 -0.2793543338775635 255 255 255
10.032282829284668 -7.643393516540527 -0.28954511880874634 255 255 255
9.976067543029785 -7.677221775054932 -0.3420208692550659 255 255 255
10.14907169342041 -7.66657829284668 -0.2605117857456207 255 255 255
9.763202667236328 -7.258718967437744 -0.26986387372016907 255 255 255
10.641533851623535 -7.883113384246826 -0.22582057118415833 255 255 255
10.578460693359375 -7.830157279968262 -0.3549426198005676 255 255 255
10.59598445892334 -7.757572650909424 -0.4401516914367676 255 255 255
10.545198440551758 -7.63723611831665 -0.349094033241272 255 255 255
10.673213958740234 -7.739442825317383 -0.282307893037796 255 255 255
10.89533805847168 -7.83576774597168 -0.28644293546676636 255 255 255
10.741856575012207 -7.81246280670166 -0.3162745237350464 255 255 255
11.183774948120117 -7.980651378631592 -0.33270251750946045 255 255 255
11.637214660644531 -8.231385231018066 -0.3760053515434265 255 255 255
11.459992408752441 -8.080072402954102 -0.2805071175098419 255 255 255
11.581781387329102 -8.079730033874512 -0.3864462673664093 255 255 255
11.332749366760254 -7.930014610290527 -0.29942789673805237 255 255 255
11.454021453857422 -7.920748233795166 -0.362741619348526 255 255 255
11.51815414428711 -8.022209167480469 -0.3969849646091461 255 255 255
11.258600234985352 -7.686211109161377 -0.31725218892097473 255 255 255
11.789078712463379 -8.034049987792969 -0.351710706949234 255 255 255
11.96955394744873 -8.044968605041504 -0.314494788646698 255 255 255
11.912879943847656 -7.9852614402771 -0.414892315864563 255 255 255
12.370439529418945 -8.283145904541016 -0.36460575461387634 255 255 255
12.51992416381836 -8.233445167541504 -0.42447397112846375 255 255 255
12.8764009475708 -8.461203575134277 -0.3694628179073334 255 255 255
12.996158599853516 -8.534671783447266 -0.366092711687088 255 255 255
13.181427001953125 -8.579275131225586 -0.3775841295719147 255 255 255
13.177018165588379 -8.453808784484863 -0.4010821580886841 255 255 255
13.411893844604492 -8.613981246948242 -0.40059706568717957 255 255 255
13.68622875213623 -8.69768238067627 -0.5018417239189148 255 255 255
13.893256187438965 -8.786735534667969 -0.4436089098453522 255 255 255
14.097118377685547 -8.85310173034668 -0.4677821099758148 255 255 255
14.204465866088867 -8.93865966796875 -0.46771693229675293 255 255 255
14.423020362854004 -8.951386451721191 -0.4143126904964447 255 255 255
14.569974899291992 -8.914780616760254 -0.47355273365974426 255 255 255
14.73641300201416 -9.007268905639648 -0.4508139491081238 255 255 255
14.890802383422852 -9.133841514587402 -0.4349435567855835 255 255 255
15.130658149719238 -9.218829154968262 -0.4650925397872925 255 255 255
15.354543685913086 -9.132328033447266 -0.5184934139251709 255 255 255
15.585259437561035 -9.321542739868164 -0.4919871389865875 255 255 255
15.6476469039917 -9.399816513061523 -0.4678645730018616 255 255 255
16.004636764526367 -9.331777572631836 -0.4586805999279022 255 255 255
15.853837966918945 -9.296125411987305 -0.5009852051734924 255 255 255
16.006641387939453 -9.179144859313965 -0.4579463005065918 255 255 255
16.03691864013672 -9.21948528289795 -0.50907963514328 255 255 255
16.799964904785156 -9.603228569030762 -0.4781033396720886 255 255 255
17.172775268554688 -9.673246383666992 -0.5704594254493713 255 255 255
17.541614532470703 -9.797998428344727 -0.5454698204994202 255 255 255
17.753313064575195 -9.917428016662598 -0.6123051643371582 255 255 255
18.016857147216797 -10.000858306884766 -0.6363258361816406 255 255 255
18.25728988647461 -10.125511169433594 -0.5930561423301697 255 255 255
18.526288986206055 -10.106225967407227 -0.6292508244514465 255 255 255
18.903371810913086 -10.319490432739258 -0.6344634890556335 255 255 255
19.121334075927734 -10.366989135742188 -0.6611219644546509 255 255 255
19.416872024536133 -10.35601806640625 -0.6550611853599548 255 255 255
19.78728675842285 -10.444746017456055 -0.714907705783844 255 255 255
19.95867156982422 -10.65410327911377 -0.6482632756233215 255 255 255
19.248558044433594 -10.110823631286621 -0.6521291136741638 255 255 255
19.319643020629883 -10.110579490661621 -0.5838572382926941 255 255 255
21.130353927612305 -10.942670822143555 -0.6753477454185486 255 255 255
21.47452163696289 -11.083365440368652 -0.7407786846160889 255 255 255
21.75057601928711 -11.122910499572754 -0.7572284936904907 255 255 255
21.580890655517578 -11.055556297302246 -0.6963798999786377 255 255 255
21.773618698120117 -10.995241165161133 -0.7385863661766052 255 255 255
23.37183380126953 -11.520417213439941 -0.7708508372306824 255 255 255
23.123104095458984 -11.345126152038574 -0.8159415125846863 255 255 255
23.331275939941406 -11.443446159362793 -0.8040308952331543 255 255 255
23.600814819335938 -11.589089393615723 -0.7427862286567688 255 255 255
24.03985595703125 -11.706610679626465 -0.843009352684021 255 255 255
24.67363739013672 -11.966444969177246 -0.8318296074867249 255 255 255
25.22481346130371 -12.033940315246582 -0.8245882391929626 255 255 255
25.777393341064453 -12.106419563293457 -0.8613749742507935 255 255 255
25.977264404296875 -12.239053726196289 -0.8595926761627197 255 255 255
26.82680320739746 -12.515807151794434 -0.9556253552436829 255 255 255
27.45933723449707 -12.63088321685791 -0.9937422275543213 255 255 255
28.087039947509766 -12.956149101257324 -1.0149362087249756 255 255 255
28.67725372314453 -13.069586753845215 -1.0229884386062622 255 255 255
29.407939910888672 -13.30026912689209 -1.0749982595443726 255 255 255
30.08639144897461 -13.574665069580078 -1.0450736284255981 255 255 255
33.65369415283203 -14.978609085083008 -1.2050065994262695 255 255 255
19.235960006713867 -8.357346534729004 -0.5429763197898865 255 255 255
19.405925750732422 -8.304058074951172 -0.5851701498031616 255 255 255
19.306955337524414 -8.285566329956055 -0.5600154399871826 255 255 255
19.314369201660156 -8.290221214294434 -0.5626975893974304 255 255 255
19.328174591064453 -8.243389129638672 -0.5358194708824158 255 255 255
19.343610763549805 -8.139851570129395 -0.6110304594039917 255 255 255
19.343013763427734 -8.006500244140625 -0.5899912714958191 255 255 255
19.37451171875 -8.061120986938477 -0.5630514621734619 255 255 255
19.71137809753418 -7.872126579284668 -0.6266986727714539 255 255 255
19.606943130493164 -7.815987586975098 -0.6319799423217773 255 255 255
19.70391845703125 -7.695774555206299 -0.6122967600822449 255 255 255
20.01217269897461 -7.392209529876709 -0.693169116973877 255 255 255
21.0152530670166 -7.725222587585449 -0.6400408744812012 255 255 255
24.821292877197266 -8.782326698303223 -0.7400447726249695 255 255 255
42.77266311645508 -15.181900024414062 -1.4870415925979614 255 255 255
42.6246223449707 -14.946158409118652 -1.5355247259140015 255 255 255
42.39720153808594 -14.823564529418945 -1.4862359762191772 255 255 255
42.3039436340332 -14.565030097961426 -1.5526117086410522 255 255 255
42.14999008178711 -14.403485298156738 -1.5275682210922241 255 255 255
41.96680450439453 -14.242622375488281 -1.4581241607666016 255 255 255
41.747859954833984 -14.022734642028809 -1.3977108001708984 255 255 255
41.63645935058594 -13.789217948913574 -1.546653151512146 255 255 255
41.577308654785156 -13.587565422058105 -1.390655755996704 255 255 255
41.441646575927734 -13.574838638305664 -1.4517781734466553 255 255 255
41.262115478515625 -13.281253814697266 -1.4253326654434204 255 255 255
41.217247009277344 -13.086238861083984 -1.4281156063079834 255 255 255
40.98667526245117 -12.915156364440918 -1.421270728111267 255 255 255
40.95231246948242 -12.846238136291504 -1.4855586290359497 255 255 255
40.915130615234375 -12.679198265075684 -1.4318106174468994 255 255 255
40.69855499267578 -12.567068099975586 -1.5123224258422852 255 255 255
40.54846954345703 -12.419889450073242 -1.473786473274231 255 255 255
40.53107833862305 -12.24844741821289 -1.412406325340271 255 255 255
40.35942077636719 -11.917576789855957 -1.4637526273727417 255 255 255
40.30093002319336 -11.79112720489502 -1.3705480098724365 255 255 255
40.201194763183594 -11.69808578491211 -1.4049276113510132 255 255 255
40.105186462402344 -11.479183197021484 -1.483625054359436 255 255 255
40.0606575012207 -11.380590438842773 -1.45148766040802 255 255 255
40.02671813964844 -11.320196151733398 -1.418225884437561 255 255 255
40.002384185791016 -11.104287147521973 -1.4904309511184692 255 255 255
39.82402801513672 -10.971874237060547 -1.3664705753326416 255 255 255
39.85126495361328 -10.727481842041016 -1.4062095880508423 255 255 255
39.77926254272461 -10.689234733581543 -1.4449903964996338 255 255 255
39.74422836303711 -10.443798065185547 -1.3798372745513916 255 255 255
39.5872688293457 -10.310043334960938 -1.3864816427230835 255 255 255
39.511898040771484 -10.298118591308594 -1.3549870252609253 255 255 255
39.430946350097656 -10.07666015625 -1.340172529220581 255 255 255
39.41136932373047 -9.886185646057129 -1.3165127038955688 255 255 255
39.37055587768555 -9.879010200500488 -1.2693051099777222 255 255 255
39.288780212402344 -9.661863327026367 -1.3459532260894775 255 255 255
39.26982498168945 -9.47245979309082 -1.390041470527649 255 255 255
39.17671203613281 -9.329288482666016 -1.365139365196228 255 255 255
39.093284606933594 -9.344244956970215 -1.2927851676940918 255 255 255
39.05678176879883 -9.196398735046387 -1.4175355434417725 255 255 255
39.01198959350586 -9.022069931030273 -1.3470052480697632 255 255 255
34.51066207885742 -7.722190856933594 -1.2114652395248413 255 255 255
32.47402572631836 -7.200697422027588 -0.9888763427734375 255 255 255
32.10249328613281 -7.023710250854492 -1.1063460111618042 255 255 255
31.92374038696289 -6.319666862487793 -1.0111733675003052 255 255 255
31.934419631958008 -6.173374652862549 -1.1052935123443604 255 255 255
32.4127082824707 -5.677742004394531 -1.1148722171783447 255 255 255
32.39279556274414 -5.560906887054443 -1.0816181898117065 255 255 255
32.5660514831543 -5.415678024291992 -0.9916823506355286 255 255 255
35.29244613647461 -5.789677619934082 -1.254889965057373 255 255 255
35.09017562866211 -5.637108325958252 -1.1258968114852905 255 255 255
34.916812896728516 -5.461101531982422 -1.1376700401306152 255 255 255
34.68284606933594 -5.412858963012695 -1.1761733293533325 255 255 255
34.6290397644043 -5.383144855499268 -1.1672910451889038 255 255 255
34.49602508544922 -5.12593936920166 -1.0913723707199097 255 255 255
34.253875732421875 -4.983006000518799 -1.0653468370437622 255 255 255
34.21516418457031 -4.933034420013428 -1.1684187650680542 255 255 255
34.062992095947266 -4.79302978515625 -1.0921951532363892 255 255 255
33.914817810058594 -4.591385364532471 -1.062925100326538 255 255 255
33.683658599853516 -4.588498592376709 -1.0867966413497925 255 255 255
33.45619583129883 -4.397151470184326 -1.0528112649917603 255 255 255
33.04326629638672 -4.250483989715576 -1.0208028554916382 255 255 255
32.5814094543457 -4.069787502288818 -1.0344314575195312 255 255 255
32.06522750854492 -3.971238851547241 -1.075106143951416 255 255 255
31.545129776000977 -3.707688570022583 -1.0293402671813965 255 255 255
30.920238494873047 -3.5785539150238037 -1.1340876817703247 255 255 255
30.34322738647461 -3.5846915245056152 -0.9369292259216309 255 255 255
29.999473571777344 -3.3920207023620605 -0.8575699329376221 255 255 255
15.082330703735352 -1.6820347309112549 -0.3792950212955475 255 255 255
14.322789192199707 -1.525036334991455 -0.30511006712913513 255 255 255
14.157967567443848 -1.3804701566696167 -0.24192611873149872 255 255 255
14.103532791137695 -1.3367841243743896 -0.31623563170433044 255 255 255
13.428366661071777 -1.0671703815460205 -0.26119405031204224 255 255 255
13.587182998657227 -1.0546345710754395 -0.3993555009365082 255 255 255
13.554954528808594 -0.9762297868728638 -0.3757132589817047 255 255 255
13.393630981445312 -1.0169228315353394 -0.3291204273700714 255 255 255
13.783407211303711 -0.9928601384162903 -0.44345661997795105 255 255 255
13.563888549804688 -0.9940810203552246 -0.28760847449302673 255 255 255
13.611485481262207 -0.8820818066596985 -0.30863773822784424 255 255 255
13.601168632507324 -0.7889636158943176 -0.391517698764801 255 255 255
13.409137725830078 -0.7609977722167969 -0.2804614305496216 255 255 255
14.69741153717041 -0.7025696039199829 -0.34724557399749756 255 255 255
14.836235046386719 -0.6398618221282959 -0.4248013496398926 255 255 255
14.780628204345703 -0.6203117370605469 -0.46653181314468384 255 255 255
14.717370986938477 -0.6178359985351562 -0.3803732395172119 255 255 255
14.773626327514648 -0.48244309425354004 -0.31788918375968933 255 255 255
14.669588088989258 -0.4388468265533447 -0.43009287118911743 255 255 255
13.94467830657959 -0.43166834115982056 -0.3855876624584198 255 255 255
13.864952087402344 -0.37078386545181274 -0.339007169008255 255 255 255
13.776801109313965 -0.2355765998363495 -0.37590721249580383 255 255 255
13.83724594116211 -0.32551833987236023 -0.36927294731140137 255 255 255
13.912023544311523 -0.22155916690826416 -0.35219302773475647 255 255 255
13.893204689025879 -0.19478197395801544 -0.2576254606246948 255 255 255
14.643918991088867 -0.15399909019470215 -0.4544529616832733 255 255 255
13.67457389831543 -0.0857161208987236 -0.3921481668949127 255 255 255
13.63475513458252 0.11918041855096817 -0.4493960440158844 255 255 255
22.591596603393555 0.25272566080093384 -0.7623285055160522 255 255 255
22.70665740966797 0.18479348719120026 -0.6559044122695923 255 255 255
18.926443099975586 0.23692527413368225 -0.6490290760993958 255 255 255
18.71502685546875 0.40899553894996643 -0.6439405083656311 255 255 255
18.62929344177246 0.3319723904132843 -0.621702253818512 255 255 255
18.54680633544922 0.38565295934677124 -0.6745479702949524 255 255 255
18.54146957397461 0.6201971173286438 -0.6837382316589355 255 255 255
18.60232162475586 0.5131169557571411 -0.6206336617469788 255 255 255
18.445348739624023 0.5538105368614197 -0.6315293312072754 255 255 255
18.739870071411133 0.6818769574165344 -0.6159933805465698 255 255 255
18.517749786376953 0.7809783816337585 -0.5855502486228943 255 255 255
9.271836280822754 0.37835973501205444 -0.17420896887779236 255 255 255
9.09340763092041 0.45313775539398193 -0.19062890112400055 255 255 255
8.988577842712402 0.45177072286605835 -0.20728334784507751 255 255 255
8.87509822845459 0.495125412940979 -0.12710238993167877 255 255 255
8.848191261291504 0.5268331170082092 -0.15879543125629425 255 255 255
8.790594100952148 0.533847451210022 -0.22902131080627441 255 255 255
8.716370582580566 0.5082750916481018 -0.1363927721977234 255 255 255
8.608795166015625 0.47915494441986084 -0.0970202162861824 255 255 255
8.52786636352539 0.47344061732292175 -0.17509494721889496 255 255 255
8.382926940917969 0.5221301317214966 -0.08757366985082626 255 255 255
8.37407398223877 0.6565820574760437 -0.18425193428993225 255 255 255
8.302958488464355 0.6049162149429321 -0.1669367253780365 255 255 255
8.268771171569824 0.6038272976875305 -0.24332883954048157 255 255 255
8.226804733276367 0.6478783488273621 -0.11014191806316376 255 255 255
8.283431053161621 0.6708892583847046 -0.14699304103851318 255 255 255
8.20294189453125 0.7224399447441101 -0.14149998128414154 255 255 255
8.171340942382812 0.7277815341949463 -0.19841286540031433 255 255 255
8.184632301330566 0.8182193040847778 -0.12155558913946152 255 255 255
8.075532913208008 0.8339133262634277 -0.23112182319164276 255 255 255
8.12437915802002 0.811318039894104 -0.1185327023267746 255 255 255
8.058616638183594 0.8608448505401611 -0.1820680797100067 255 255 255
8.026684761047363 0.9494723677635193 -0.17592689394950867 255 255 255
7.97369909286499 0.9068206548690796 -0.09904579073190689 255 255 255
8.109488487243652 0.9303869605064392 -0.149813711643219 255 255 255
8.014951705932617 0.9371463656425476 -0.03769250586628914 255 255 255
8.057567596435547 0.9127668738365173 -0.0947127565741539 255 255 255
7.975947380065918 1.03878915309906 -0.09481018036603928 255 255 255
8.0000581741333 0.9834702014923096 -0.18723204731941223 255 255 255
8.018260955810547 1.0292726755142212 -0.12880752980709076 255 255 255
8.046634674072266 1.0309643745422363 -0.17272794246673584 255 255 255
8.01492977142334 1.1048455238342285 -0.22544366121292114 255 255 255
7.943322658538818 1.1237685680389404 -0.16738241910934448 255 255 255
8.002192497253418 1.1137837171554565 -0.12187839299440384 255 255 255
8.027385711669922 1.2031714916229248 -0.14443907141685486 255 255 255
7.987678050994873 1.189469814300537 -0.1489235907793045 255 255 255
7.971402645111084 1.2063921689987183 -0.10190105438232422 255 255 255
7.928988933563232 1.190555453300476 -0.045528654009103775 255 255 255
7.961092472076416 1.268570065498352 -0.10945960134267807 255 255 255
7.974246978759766 1.2307484149932861 -0.15298417210578918 255 255 255
7.8766045570373535 1.2913434505462646 -0.23031464219093323 255 255 255
7.965906620025635 1.2454460859298706 -0.1453498899936676 255 255 255
7.9770612716674805 1.4275014400482178 -0.21319100260734558 255 255 255
8.029098510742188 1.2712079286575317 -0.07316194474697113 255 255 255
7.979126930236816 1.4224222898483276 -0.1376933455467224 255 255 255
7.895880699157715 1.469742774963379 -0.24132511019706726 255 255 255
8.119800567626953 1.8625894784927368 -0.13131055235862732 255 255 255
20.43208122253418 4.8356218338012695 -0.6765819787979126 255 255 255
20.54026985168457 4.860842704772949 -0.698380708694458 255 255 255
20.339527130126953 4.892983913421631 -0.7834116220474243 255 255 255
20.182157516479492 5.007514476776123 -0.6984642148017883 255 255 255
20.271568298339844 5.013672828674316 -0.7450364232063293 255 255 255
20.13132095336914 5.082841873168945 -0.6769741773605347 255 255 255
11.331547737121582 2.8653435707092285 -0.22559504210948944 255 255 255
19.918031692504883 5.093442440032959 -0.76004958152771 255 255 255
19.744176864624023 5.15449333190918 -0.6918533444404602 255 255 255
19.641340255737305 5.119153022766113 -0.6708603501319885 255 255 255
19.51447868347168 5.165416240692139 -0.7656493186950684 255 255 255
19.388755798339844 5.260798931121826 -0.6526488065719604 255 255 255
11.01268482208252 2.9839680194854736 -0.3202202022075653 255 255 255
19.206790924072266 5.182934761047363 -0.7680942416191101 255 255 255
10.873002052307129 3.0431482791900635 -0.3526666462421417 255 255 255
10.94801139831543 3.140238046646118 -0.3783421218395233 255 255 255
10.807145118713379 3.0182976722717285 -0.3278082609176636 255 255 255
10.795775413513184 3.0543205738067627 -0.3620312809944153 255 255 255
10.728221893310547 3.1044349670410156 -0.293061226606369 255 255 255
10.603346824645996 3.122575283050537 -0.2794640064239502 255 255 255
10.627744674682617 3.168922185897827 -0.15958106517791748 255 255 255
10.47664737701416 3.2232131958007812 -0.3019440472126007 255 255 255
10.387369155883789 3.2003073692321777 -0.32856473326683044 255 255 255
18.262842178344727 5.598674297332764 -0.64516681432724 255 255 255
18.146263122558594 5.4775190353393555 -0.6654723286628723 255 255 255
18.04598617553711 5.628870010375977 -0.6244708299636841 255 255 255
17.971294403076172 5.694630146026611 -0.6575490832328796 255 255 255
17.95118522644043 5.794031620025635 -0.5916698575019836 255 255 255
17.789247512817383 5.773584365844727 -0.6529545783996582 255 255 255
17.722768783569336 5.745947360992432 -0.6995444297790527 255 255 255
17.627004623413086 5.784748077392578 -0.5657746195793152 255 255 255
17.59534454345703 5.873006820678711 -0.7080687880516052 255 255 255
13.072929382324219 4.437141418457031 -0.3778066635131836 255 255 255
12.85905933380127 4.375921726226807 -0.37426477670669556 255 255 255
12.90754508972168 4.537027835845947 -0.36729151010513306 255 255 255
12.77666187286377 4.558554649353027 -0.4522148370742798 255 255 255
12.453239440917969 4.315398216247559 -0.42111456394195557 255 255 255
12.326353073120117 4.501524448394775 -0.3184908330440521 255 255 255
12.860597610473633 4.522341728210449 -0.3192881941795349 255 255 255
16.873537063598633 6.066793441772461 -0.6022993326187134 255 255 255
16.728185653686523 6.111700534820557 -0.527751088142395 255 255 255
16.699871063232422 6.121389865875244 -0.5069900751113892 255 255 255
10.158492088317871 3.7697460651397705 -0.25558650493621826 255 255 255
10.192212104797363 3.8270862102508545 -0.3694363534450531 255 255 255
10.215968132019043 3.9338698387145996 -0.34900787472724915 255 255 255
10.184493064880371 3.8786404132843018 -0.3641790449619293 255 255 255
10.13200569152832 3.8859305381774902 -0.20522259175777435 255 255 255
10.158920288085938 3.9649925231933594 -0.2729877233505249 255 255 255
10.052312850952148 3.9592528343200684 -0.2842050790786743 255 255 255
10.00484848022461 3.9298605918884277 -0.20836129784584045 255 255 255
10.024913787841797 3.9980857372283936 -0.3962685465812683 255 255 255
16.014142990112305 6.498682975769043 -0.46726760268211365 255 255 255
15.819793701171875 6.404564380645752 -0.551177442073822 255 255 255
15.746359825134277 6.374593734741211 -0.5999343991279602 255 255 255
15.783453941345215 6.400666236877441 -0.5875164866447449 255 255 255
15.564522743225098 6.482098579406738 -0.5402213931083679 255 255 255
12.697669982910156 5.293919086456299 -0.517723798751831 255 255 255
15.440498352050781 6.523083209991455 -0.5688125491142273 255 255 255
15.451327323913574 6.514183521270752 -0.49173101782798767 255 255 255
15.445281982421875 6.52540922164917 -0.5229465365409851 255 255 255
15.388795852661133 6.644531726837158 -0.4985398054122925 255 255 255
15.498449325561523 6.633014678955078 -0.5539100766181946 255 255 255
15.370243072509766 6.620330333709717 -0.5858613848686218 255 255 255
15.464055061340332 6.844938278198242 -0.4776372015476227 255 255 255
15.443947792053223 6.748095989227295 -0.5569527745246887 255 255 255
15.58657169342041 6.9325361251831055 -0.5792332291603088 255 255 255
15.574713706970215 6.873133182525635 -0.4875134825706482 255 255 255
15.51835823059082 7.029236316680908 -0.49696362018585205 255 255 255
15.523636817932129 7.08480167388916 -0.42438971996307373 255 255 255
14.048077583312988 6.498291969299316 -0.5336254835128784 255 255 255
14.051811218261719 6.558802127838135 -0.49857670068740845 255 255 255
14.104586601257324 6.579320907592773 -0.46035826206207275 255 255 255
14.001029968261719 6.632452011108398 -0.4561801254749298 255 255 255
13.905410766601562 6.762964248657227 -0.5606802105903625 255 255 255
13.899606704711914 6.632577896118164 -0.47606292366981506 255 255 255
13.79721736907959 6.636206150054932 -0.49002939462661743 255 255 255
13.59306812286377 6.6826252937316895 -0.49126312136650085 255 255 255
13.638631820678711 6.635293960571289 -0.39751091599464417 255 255 255
13.563350677490234 6.778557300567627 -0.4671785831451416 255 255 255
13.68851375579834 6.867404460906982 -0.4377809166908264 255 255 255
13.65545654296875 6.746856212615967 -0.46143588423728943 255 255 255
13.362089157104492 6.6816887855529785 -0.4537715017795563 255 255 255
13.538278579711914 6.865545749664307 -0.4209353029727936 255 255 255
13.54601764678955 6.9378342628479 -0.46455204486846924 255 255 255
13.57898998260498 6.961050987243652 -0.5227566361427307 255 255 255
13.327378273010254 6.954892158508301 -0.472708135843277 255 255 255
10.212020874023438 5.38889217376709 -0.18693746626377106 255 255 255
10.1605863571167 5.381405353546143 -0.30334728956222534 255 255 255
13.380218505859375 7.011758327484131 -0.5137225985527039 255 255 255
10.357675552368164 5.537765026092529 -0.280109703540802 255 255 255
10.251184463500977 5.516291618347168 -0.2639501690864563 255 255 255
10.309814453125 5.622848033905029 -0.3157154321670532 255 255 255
10.24852466583252 5.663360118865967 -0.32044482231140137 255 255 255
13.303330421447754 7.3933186531066895 -0.42747053503990173 255 255 255
13.41467571258545 7.343143939971924 -0.4847602844238281 255 255 255
13.05265998840332 7.249026298522949 -0.437188059091568 255 255 255
13.248762130737305 7.326134204864502 -0.44223544001579285 255 255 255
13.32712173461914 7.535828113555908 -0.4496997594833374 255 255 255
13.423789024353027 7.6511921882629395 -0.5528579354286194 255 255 255
13.417423248291016 7.582242488861084 -0.5444198846817017 255 255 255
13.268054008483887 7.600765705108643 -0.48760396242141724 255 255 255
13.460931777954102 7.683865070343018 -0.5457136631011963 255 255 255
13.221714973449707 7.6521897315979 -0.5051038861274719 255 255 255
13.250168800354004 7.771131992340088 -0.40204426646232605 255 255 255
13.289945602416992 7.857905387878418 -0.5452277660369873 255 255 255
13.18044376373291 7.901994705200195 -0.49238523840904236 255 255 255
13.225430488586426 7.997950553894043 -0.46447283029556274 255 255 255
13.370288848876953 7.9907546043396 -0.5348951816558838 255 255 255
13.345641136169434 8.122624397277832 -0.5868436098098755 255 255 255
13.336528778076172 8.200304985046387 -0.5626879334449768 255 255 255
13.398653984069824 8.217541694641113 -0.4779779613018036 255 255 255
13.354581832885742 8.377681732177734 -0.5587487816810608 255 255 255
6.925629615783691 4.302906513214111 -0.1550254374742508 255 255 255
13.531903266906738 8.44953441619873 -0.5052942633628845 255 255 255
7.0374298095703125 4.540525913238525 -0.2280612289905548 255 255 255
13.581966400146484 8.702096939086914 -0.453288733959198 255 255 255
13.614974021911621 8.659968376159668 -0.4702560007572174 255 255 255
6.800581455230713 4.437409400939941 -0.1652352511882782 255 255 255
6.734802722930908 4.38078498840332 -0.14690887928009033 255 255 255
6.781144618988037 4.440526485443115 -0.10441266745328903 255 255 255
6.853105068206787 4.475754261016846 -0.07929381728172302 255 255 255
6.928528308868408 4.59954309463501 -0.03785045072436333 255 255 255
6.852548122406006 4.583769798278809 -0.16688832640647888 255 255 255
6.832534313201904 4.568658351898193 -0.15419280529022217 255 255 255
6.721006393432617 4.5701775550842285 -0.12931320071220398 255 255 255
6.855653762817383 4.625717639923096 -0.1390026956796646 255 255 255
6.785783767700195 4.49777364730835 -0.16690987348556519 255 255 255
6.62829065322876 4.669029235839844 -0.1532682627439499 255 255 255
6.627933502197266 4.502995491027832 -0.14095725119113922 255 255 255
6.593644142150879 4.546776294708252 -0.11206661909818649 255 255 255
6.5681986808776855 4.6342453956604 -0.16385330259799957 255 255 255
6.730983734130859 4.75633430480957 -0.22913427650928497 255 255 255
6.73341178894043 4.727820873260498 -0.22453102469444275 255 255 255
6.533146858215332 4.62507963180542 -0.16561715304851532 255 255 255
6.563711166381836 4.874080657958984 -0.25184619426727295 255 255 255
6.635123252868652 4.75147008895874 -0.1405041664838791 255 255 255
6.5973663330078125 4.832909107208252 -0.11462614685297012 255 255 255
6.489181041717529 4.701057434082031 -0.20486946403980255 255 255 255
6.452392578125 4.763294696807861 -0.20574654638767242 255 255 255
6.41879415512085 4.692678451538086 -0.20932242274284363 255 255 255
6.4347615242004395 4.696174144744873 -0.19176705181598663 255 255 255
6.413014888763428 4.798553943634033 -0.18755516409873962 255 255 255
6.368469715118408 4.732255458831787 -0.06061054766178131 255 255 255
6.4361114501953125 4.814064979553223 -0.043283216655254364 255 255 255
6.274801254272461 4.792962074279785 -0.04521214962005615 255 255 255
6.566509246826172 5.048382759094238 -0.2005719542503357 255 255 255
6.530837535858154 5.18111515045166 -0.17277473211288452 255 255 255
6.583756923675537 5.118553161621094 -0.16138316690921783 255 255 255
7.6153435707092285 5.939682483673096 -0.27114248275756836 255 255 255
6.576678276062012 5.202621936798096 -0.07857704162597656 255 255 255
6.59791374206543 5.136895179748535 -0.14519542455673218 255 255 255
8.096495628356934 6.400070667266846 -0.3060090243816376 255 255 255
6.578855514526367 5.331411838531494 -0.2085508108139038 255 255 255
6.021093845367432 4.807435512542725 -0.14339566230773926 255 255 255
6.008763313293457 4.964870452880859 -0.14725567400455475 255 255 255
6.565624713897705 5.409390926361084 -0.28686755895614624 255 255 255
6.0789570808410645 4.903143405914307 -0.22569115459918976 255 255 255
5.921209812164307 4.9160356521606445 -0.16575661301612854 255 255 255
5.857449531555176 4.924948215484619 -0.09169850498437881 255 255 255
5.93501091003418 4.947105884552002 -0.15360139310359955 255 255 255
8.72192096710205 -7.062892913818359 -0.32672882080078125 255 255 255
8.954316139221191 -7.252256870269775 -0.35583949089050293 255 255 255
8.97175121307373 -7.194529056549072 -0.32567843794822693 255 255 255
10.505342483520508 -8.452465057373047 -0.4397873282432556 255 255 255
10.42696475982666 -8.371478080749512 -0.2854991555213928 255 255 255
10.356348037719727 -8.330005645751953 -0.4028467535972595 255 255 255
10.37440013885498 -8.203872680664062 -0.4794459939002991 255 255 255
10.209760665893555 -7.908500671386719 -0.35782256722450256 255 255 255
9.897165298461914 -7.743837356567383 -0.34162211418151855 255 255 255
9.85881519317627 -7.751604080200195 -0.29130247235298157 255 255 255
10.11580753326416 -7.828559398651123 -0.41625672578811646 255 255 255
10.093058586120605 -7.751585006713867 -0.29927462339401245 255 255 255
9.96054458618164 -7.674724102020264 -0.4540409743785858 255 255 255
10.074100494384766 -7.656022071838379 -0.30389532446861267 255 255 255
10.579305648803711 -7.851914405822754 -0.41150403022766113 255 255 255
10.208494186401367 -7.580190181732178 -0.39981764554977417 255 255 255
10.292219161987305 -7.65177059173584 -0.3389507532119751 255 255 255
10.42296314239502 -7.665223121643066 -0.3750636875629425 255 255 255
10.515363693237305 -7.770216941833496 -0.35921502113342285 255 255 255
10.509753227233887 -7.732090473175049 -0.3631995916366577 255 255 255
10.673111915588379 -7.713016510009766 -0.39567869901657104 255 255 255
10.7466402053833 -7.809352397918701 -0.33847418427467346 255 255 255
10.889984130859375 -7.748786449432373 -0.4477865397930145 255 255 255
10.991721153259277 -7.830258369445801 -0.3780793845653534 255 255 255
11.12407112121582 -7.897748947143555 -0.4092346429824829 255 255 255
11.245725631713867 -7.960282325744629 -0.4196391999721527 255 255 255
11.325693130493164 -8.01321029663086 -0.36780470609664917 255 255 255
11.279633522033691 -7.956298351287842 -0.41154274344444275 255 255 255
11.352198600769043 -7.769428730010986 -0.44632577896118164 255 255 255
11.869424819946289 -8.156851768493652 -0.5259383320808411 255 255 255
11.135467529296875 -7.579894065856934 -0.40430325269699097 255 255 255
11.908337593078613 -8.13982105255127 -0.5330998301506042 255 255 255
12.138065338134766 -8.173478126525879 -0.4406072497367859 255 255 255
12.320979118347168 -8.269152641296387 -0.44886502623558044 255 255 255
12.390777587890625 -8.384795188903809 -0.40240171551704407 255 255 255
12.566618919372559 -8.319358825683594 -0.36833977699279785 255 255 255
12.691167831420898 -8.453073501586914 -0.6094706058502197 255 255 255
12.948088645935059 -8.518745422363281 -0.45286282896995544 255 255 255
12.87933349609375 -8.50226879119873 -0.47217556834220886 255 255 255
13.262260437011719 -8.598687171936035 -0.4556063115596771 255 255 255
13.466007232666016 -8.609061241149902 -0.6118934154510498 255 255 255
13.4996976852417 -8.659195899963379 -0.5204170942306519 255 255 255
13.756949424743652 -8.712546348571777 -0.5172364115715027 255 255 255
13.886480331420898 -8.704277038574219 -0.570818305015564 255 255 255
14.058488845825195 -8.805863380432129 -0.5721696615219116 255 255 255
14.233990669250488 -8.85516357421875 -0.5388915538787842 255 255 255
14.529794692993164 -8.939871788024902 -0.5635051727294922 255 255 255
14.631301879882812 -9.039456367492676 -0.4634225368499756 255 255 255
14.88136100769043 -9.011818885803223 -0.526148796081543 255 255 255
15.143745422363281 -9.134282112121582 -0.6323078274726868 255 255 255
15.262533187866211 -9.150544166564941 -0.4771712124347687 255 255 255
15.417799949645996 -9.193172454833984 -0.5445089936256409 255 255 255
15.513845443725586 -9.220152854919434 -0.6495040059089661 255 255 255
15.665084838867188 -9.276991844177246 -0.6265515685081482 255 255 255
15.682501792907715 -9.211221694946289 -0.6367444396018982 255 255 255
16.11323356628418 -9.391064643859863 -0.6902294754981995 255 255 255
16.23919677734375 -9.422233581542969 -0.6434635519981384 255 255 255
16.530611038208008 -9.500248908996582 -0.7068915367126465 255 255 255
16.943296432495117 -9.612741470336914 -0.6826329231262207 255 255 255
17.241783142089844 -9.79411792755127 -0.610893726348877 255 255 255
17.518583297729492 -9.928486824035645 -0.6534921526908875 255 255 255
17.808868408203125 -9.905374526977539 -0.7204957604408264 255 255 255
18.106483459472656 -10.075621604919434 -0.6699773073196411 255 255 255
18.299800872802734 -10.123575210571289 -0.6356880068778992 255 255 255
18.57015609741211 -10.255902290344238 -0.7567054629325867 255 255 255
18.88984489440918 -10.262231826782227 -0.7037757635116577 255 255 255
19.406444549560547 -10.531624794006348 -0.7348253130912781 255 255 255
20.10107421875 -10.818285942077637 -0.8224025368690491 255 255 255
20.144006729125977 -10.724751472473145 -0.8233592510223389 255 255 255
20.279102325439453 -10.660921096801758 -0.8720671534538269 255 255 255
19.195446014404297 -10.148704528808594 -0.7365538477897644 255 255 255
19.350812911987305 -10.157670021057129 -0.7285387516021729 255 255 255
20.452877044677734 -10.53547477722168 -0.6935605406761169 255 255 255
20.81191062927246 -10.712430000305176 -0.7314311265945435 255 255 255
21.174882888793945 -10.834171295166016 -0.8991180658340454 255 255 255
21.596660614013672 -11.056062698364258 -0.7969071269035339 255 255 255
22.09316062927246 -11.141587257385254 -0.806618869304657 255 255 255
22.4539794921875 -11.170575141906738 -0.903984010219574 255 255 255
22.700143814086914 -11.341031074523926 -0.913199782371521 255 255 255
23.273591995239258 -11.527732849121094 -0.8770037293434143 255 255 255
23.668582916259766 -11.568132400512695 -0.9414361715316772 255 255 255
24.18848991394043 -11.7466459274292 -1.0327224731445312 255 255 255
24.70981788635254 -11.937347412109375 -1.0691046714782715 255 255 255
25.33464813232422 -12.029651641845703 -1.0995020866394043 255 255 255
25.759172439575195 -12.272302627563477 -0.9903197288513184 255 255 255
26.190204620361328 -12.327869415283203 -1.048537015914917 255 255 255
26.968517303466797 -12.518916130065918 -1.1600613594055176 255 255 255
27.460588455200195 -12.772577285766602 -0.9643487334251404 255 255 255
28.1822566986084 -13.00011920928955 -1.1589432954788208 255 255 255
28.757280349731445 -13.150160789489746 -1.2559188604354858 255 255 255
29.50933265686035 -13.412457466125488 -1.2510457038879395 255 255 255
30.31539535522461 -13.637012481689453 -1.2187244892120361 255 255 255
19.03008270263672 -8.524144172668457 -0.6335229873657227 255 255 255
19.129676818847656 -8.472042083740234 -0.8099709153175354 255 255 255
19.07281494140625 -8.413039207458496 -0.7225393652915955 255 255 255
19.106727600097656 -8.303772926330566 -0.6567426919937134 255 255 255
