ply
format ascii 1.0
element vertex 689
property float x
property float y
property float z
property uchar red
property uchar green
property uchar blue
end_header
10.423088073730469 4.092805862426758 0.4225355386734009 255 255 255
18.35944175720215 -6.6208295822143555 -1.5395827293395996 255 255 255
3.5145559310913086 2.029918670654297 -0.23938250541687012 255 255 255
6.6119537353515625 0.5539553165435791 -1.3072108030319214 255 255 255
53.57098388671875 -11.86974811553955 0.7209540009498596 255 255 255
7.1715216636657715 3.7896995544433594 0.4055086374282837 255 255 255
8.44017505645752 -2.550139904022217 -1.708974003791809 255 255 255
7.038180351257324 0.5386990308761597 -1.5757478475570679 255 255 255
70.77932739257812 -27.38658905029297 -0.4195125102996826 255 255 255
14.202930450439453 -6.314171314239502 -1.7253797054290771 255 255 255
9.267918586730957 -8.432126998901367 0.10489033162593842 255 255 255
4.277739524841309 1.4514816999435425 -0.8348420858383179 255 255 255
4.179992198944092 1.4837000370025635 -1.1084697246551514 255 255 255
13.498459815979004 3.179011583328247 -0.5247379541397095 255 255 255
9.461265563964844 0.33763599395751953 -0.529711127281189 255 255 255
7.261073589324951 -0.020466063171625137 -1.2430998086929321 255 255 255
13.860881805419922 2.950810194015503 -0.1769666075706482 255 255 255
13.222267150878906 -1.3634166717529297 -0.7867668867111206 255 255 255
18.708465576171875 -9.314559936523438 -1.3792381286621094 255 255 255
18.789037704467773 -0.18262700736522675 -0.15897077322006226 255 255 255
29.47983741760254 -6.710171699523926 -0.7551503777503967 255 255 255
11.955472946166992 4.1065592765808105 -0.873258113861084 255 255 255
22.652692794799805 -2.9521138668060303 0.3348419666290283 255 255 255
7.399746894836426 -1.716365098953247 -1.7329330444335938 255 255 255
10.600993156433105 -9.212437629699707 -0.2352047711610794 255 255 255
68.72256469726562 -19.90555191040039 2.1802308559417725 255 255 255
20.09322738647461 3.1074581146240234 -0.7077458500862122 255 255 255
5.169196128845215 1.1983212232589722 -0.7915102243423462 255 255 255
20.469755172729492 -5.590266227722168 -1.5010240077972412 255 255 255
13.05566692352295 -2.412571430206299 -1.4210361242294312 255 255 255
4.735798358917236 -3.979320526123047 -0.9647941589355469 255 255 255
18.402339935302734 -5.88596248626709 -1.623708724975586 255 255 255
3.8003146648406982 2.339777946472168 -0.09484325349330902 255 255 255
21.624744415283203 -0.5063863396644592 0.9142525792121887 255 255 255
18.4711856842041 3.436047315597534 -0.7761656045913696 255 255 255
21.341629028320312 -2.1169021129608154 0.1187361478805542 255 255 255
73.27413177490234 -23.842906951904297 1.9762940406799316 255 255 255
8.373263359069824 -8.073041915893555 -1.0791352987289429 255 255 255
6.517216205596924 0.15909723937511444 -1.6198230981826782 255 255 255
5.245002746582031 1.1648589372634888 -1.1715484857559204 255 255 255
6.226657390594482 -0.46194231510162354 -1.538238525390625 255 255 255
6.376266002655029 4.239256858825684 -0.039893172681331635 255 255 255
3.781320095062256 1.6966285705566406 -0.8209602236747742 255 255 255
21.19768714904785 -1.589589238166809 0.6854791641235352 255 255 255
6.381895065307617 -0.012814681977033615 -1.6637226343154907 255 255 255
20.78418731689453 -8.433022499084473 -1.6016267538070679 255 255 255
6.994631290435791 -1.3797591924667358 -1.6288678646087646 255 255 255
12.764860153198242 3.2075955867767334 -0.9877895712852478 255 255 255
6.188450813293457 -1.7903891801834106 -1.6506197452545166 255 255 255
7.388145923614502 -4.222078323364258 -1.6657538414001465 255 255 255
20.707805633544922 -7.934036731719971 -1.633664846420288 255 255 255
7.4949798583984375 -0.2845483422279358 -1.6027637720108032 255 255 255
11.864363670349121 -2.2614452838897705 -1.678401231765747 255 255 255
18.570640563964844 -0.32440701127052307 0.0544540137052536 255 255 255
6.618790626525879 0.4547358751296997 -0.9007045030593872 255 255 255
8.976207733154297 -1.0682506561279297 -1.6137726306915283 255 255 255
9.019484519958496 2.705373525619507 -0.9006684422492981 255 255 255
4.7611284255981445 -3.47438645362854 -1.3249393701553345 255 255 255
7.393718719482422 -4.2541184425354 -1.4883663654327393 255 255 255
19.448158264160156 -7.223141670227051 -1.624267578125 255 255 255
10.53245735168457 -9.156081199645996 -0.618895947933197 255 255 255
4.908807277679443 1.178903579711914 -0.8347029685974121 255 255 255
23.895978927612305 -9.808462142944336 -1.5631828308105469 255 255 255
20.896053314208984 -13.434553146362305 -1.2720860242843628 255 255 255
7.434441566467285 0.05077558383345604 -0.47239193320274353 255 255 255
5.827752590179443 -3.7892985343933105 -0.3602356016635895 255 255 255
4.470880508422852 1.4846265316009521 -0.49974751472473145 255 255 255
20.14521026611328 -13.262399673461914 -0.5854108929634094 255 255 255
20.56386947631836 2.7649664878845215 -0.10207948833703995 255 255 255
8.167974472045898 -7.990217685699463 -1.203757643699646 255 255 255
10.530097007751465 -8.804455757141113 0.18009240925312042 255 255 255
30.265602111816406 -7.3954620361328125 -1.2299752235412598 255 255 255
5.6974968910217285 -3.614363193511963 -1.3164104223251343 255 255 255
7.092921733856201 3.8378403186798096 0.009159221313893795 255 255 255
7.607858657836914 -3.3910655975341797 -1.6582293510437012 255 255 255
12.40173053741455 -9.62698745727539 0.16632968187332153 255 255 255
53.275203704833984 -12.335768699645996 0.809759259223938 255 255 255
8.36912727355957 -8.293381690979004 -0.2983265519142151 255 255 255
6.912791728973389 0.5341277718544006 -0.6812155842781067 255 255 255
6.8141584396362305 -0.29483410716056824 -1.5803254842758179 255 255 255
7.320010185241699 -0.28649309277534485 -1.6723120212554932 255 255 255
6.74100399017334 -0.5566495060920715 -1.6404283046722412 255 255 255
8.859375 -0.6210920810699463 -1.0526480674743652 255 255 255
18.403310775756836 1.9962003231048584 0.6539133191108704 255 255 255
13.174182891845703 4.6833720207214355 -0.8649321794509888 255 255 255
11.685229301452637 -4.428455352783203 -1.7201184034347534 255 255 255
14.060408592224121 -2.513225555419922 -1.576837420463562 255 255 255
4.944994926452637 -3.5411875247955322 -1.0442731380462646 255 255 255
5.284674644470215 1.1201412677764893 -1.3096227645874023 255 255 255
13.899771690368652 -1.988211989402771 -0.08057935535907745 255 255 255
12.940401077270508 -1.4931174516677856 -0.7047700881958008 255 255 255
13.37185001373291 -2.34545636177063 -0.45309823751449585 255 255 255
20.624935150146484 2.7308096885681152 0.8301658034324646 255 255 255
23.341083526611328 -14.436636924743652 -1.7387691736221313 255 255 255
31.705869674682617 -18.255334854125977 -0.9923684000968933 255 255 255
10.628328323364258 2.747981548309326 -0.18888458609580994 255 255 255
9.558405876159668 2.663153648376465 -0.5967904329299927 255 255 255
11.445284843444824 5.6914849281311035 0.6581652760505676 255 255 255
3.710934638977051 1.8619211912155151 -0.4575262665748596 255 255 255
13.650251388549805 -4.673974514007568 -1.6374719142913818 255 255 255
21.161649703979492 -13.194113731384277 -0.0007994233747012913 255 255 255
3.4533607959747314 1.9958789348602295 -0.22114863991737366 255 255 255
21.29265022277832 -1.3722779750823975 -0.2079276740550995 255 255 255
10.803059577941895 -8.725104331970215 0.37331464886665344 255 255 255
13.054253578186035 -2.100165843963623 -1.6312302350997925 255 255 255
9.809011459350586 -5.00485372543335 -1.7252980470657349 255 255 255
4.505773067474365 1.6346937417984009 -0.7163230180740356 255 255 255
6.524226665496826 0.8469986915588379 -1.0178916454315186 255 255 255
7.487720489501953 0.052999965846538544 -1.5619837045669556 255 255 255
9.617592811584473 3.637127161026001 0.4338436722755432 255 255 255
17.780467987060547 1.1205213069915771 0.532227098941803 255 255 255
17.33214569091797 1.4085032939910889 -0.29655635356903076 255 255 255
22.72574806213379 -13.346195220947266 -1.8075146675109863 255 255 255
3.5917646884918213 2.249561309814453 -0.12050420045852661 255 255 255
73.2800521850586 -23.41331672668457 1.954038381576538 255 255 255
10.353133201599121 -5.513962268829346 -1.7510770559310913 255 255 255
12.287538528442383 4.3633222579956055 -0.9639332890510559 255 255 255
9.470229148864746 3.7909762859344482 0.580467939376831 255 255 255
53.48126983642578 -11.687860488891602 0.3880762457847595 255 255 255
20.183876037597656 -12.139697074890137 0.9980608820915222 255 255 255
68.8335189819336 -25.062536239624023 0.11179844290018082 255 255 255
8.204818725585938 -2.291078805923462 -1.7066391706466675 255 255 255
7.644216060638428 -3.233644723892212 -1.7444945573806763 255 255 255
31.083528518676758 -11.773438453674316 -1.4725273847579956 255 255 255
4.985474109649658 1.3505291938781738 -1.2554281949996948 255 255 255
23.568769454956055 -0.6980378031730652 0.19571417570114136 255 255 255
21.233806610107422 2.5452356338500977 -0.25884974002838135 255 255 255
7.290652275085449 3.7251272201538086 -0.02318045124411583 255 255 255
6.494814395904541 1.3590325117111206 -1.0134966373443604 255 255 255
30.95505714416504 -10.001554489135742 -0.599625289440155 255 255 255
4.7276692390441895 -4.020047187805176 -1.3605399131774902 255 255 255
19.91550636291504 3.125370740890503 0.06198422610759735 255 255 255
10.342896461486816 4.342748641967773 0.16247527301311493 255 255 255
6.955009937286377 3.9093496799468994 0.19222137331962585 255 255 255
3.9656481742858887 2.515164852142334 -0.6175501942634583 255 255 255
6.762669086456299 4.110320568084717 -0.14514952898025513 255 255 255
9.396052360534668 -1.1194175481796265 -1.55768883228302 255 255 255
7.862146377563477 -0.2169581949710846 -1.7006765604019165 255 255 255
6.872781753540039 3.9123027324676514 -0.20643827319145203 255 255 255
4.104770660400391 1.6213014125823975 -0.9220027923583984 255 255 255
21.205167770385742 -0.9355058073997498 0.7248138785362244 255 255 255
8.024338722229004 -8.182010650634766 -0.450882226228714 255 255 255
13.117867469787598 -2.5373969078063965 -1.4140678644180298 255 255 255
55.54195022583008 -20.499217987060547 -1.0093415975570679 255 255 255
15.105978965759277 7.3708038330078125 -0.38927698135375977 255 255 255
7.621300220489502 -0.08674207329750061 -0.9974296689033508 255 255 255
37.986846923828125 -21.565763473510742 1.2469429969787598 255 255 255
32.4437141418457 -15.015104293823242 -1.600671410560608 255 255 255
22.592397689819336 -13.71823501586914 -1.8328816890716553 255 255 255
7.2930779457092285 -2.0512855052948 -1.64211905002594 255 255 255
7.087519645690918 1.1348785161972046 -1.5643293857574463 255 255 255
9.408171653747559 2.4297237396240234 -0.8878376483917236 255 255 255
14.858613014221191 -3.7011067867279053 -1.5476882457733154 255 255 255
18.746158599853516 -0.4338074326515198 0.23815079033374786 255 255 255
28.2962589263916 -16.688749313354492 -0.28416791558265686 255 255 255
10.12522029876709 -3.303953170776367 -1.6721453666687012 255 255 255
10.606613159179688 3.9936254024505615 0.34694045782089233 255 255 255
4.8664727210998535 -3.4468789100646973 -1.2492958307266235 255 255 255
6.254321098327637 -0.23311661183834076 -1.6116479635238647 255 255 255
10.807559967041016 4.404007434844971 -0.8490433692932129 255 255 255
13.537259101867676 -5.651342868804932 -1.6494396924972534 255 255 255
6.950108528137207 1.3970329761505127 -0.6693377494812012 255 255 255
18.992856979370117 3.385991096496582 0.8036659359931946 255 255 255
6.830280780792236 0.234916090965271 -1.239913821220398 255 255 255
16.250652313232422 4.712669372558594 -0.36129438877105713 255 255 255
8.36889934539795 0.09339259564876556 -0.1556296944618225 255 255 255
14.746830940246582 -5.888651371002197 -1.6748379468917847 255 255 255
6.944821834564209 1.3767962455749512 -0.7268998622894287 255 255 255
14.12380313873291 -5.2660698890686035 -1.6880502700805664 255 255 255
4.9452433586120605 -3.4503583908081055 -1.1737197637557983 255 255 255
13.121861457824707 -1.1066455841064453 -1.0429940223693848 255 255 255
13.484928131103516 -1.7062982320785522 -0.17502380907535553 255 255 255
7.121130466461182 3.786898612976074 0.3447088897228241 255 255 255
39.39065933227539 -17.191654205322266 -1.4169280529022217 255 255 255
7.433895587921143 -4.302762985229492 -1.8222535848617554 255 255 255
8.185233116149902 5.177815914154053 -0.15779273211956024 255 255 255
6.938155174255371 0.23911499977111816 -0.7060249447822571 255 255 255
8.761059761047363 -3.9435410499572754 -1.6947240829467773 255 255 255
4.2069621086120605 1.5368727445602417 -0.940195620059967 255 255 255
4.78745174407959 -3.9964852333068848 -1.223769187927246 255 255 255
6.1967902183532715 0.3209773898124695 -1.59885573387146 255 255 255
13.292449951171875 -1.193166732788086 -0.6569817066192627 255 255 255
4.712948322296143 1.283371925354004 -0.8459598422050476 255 255 255
4.9402546882629395 -3.5334293842315674 -0.879145085811615 255 255 255
18.27349090576172 -12.44349479675293 -0.3770054280757904 255 255 255
19.08626365661621 -13.024791717529297 0.24283425509929657 255 255 255
17.482784271240234 4.182751655578613 0.7354583740234375 255 255 255
14.164994239807129 -3.049225091934204 -1.0316743850708008 255 255 255
14.531486511230469 -10.663735389709473 -1.1322526931762695 255 255 255
12.929289817810059 -1.6846773624420166 -0.9274051785469055 255 255 255
11.497882843017578 -9.583846092224121 -0.6431678533554077 255 255 255
7.042106628417969 4.227959156036377 0.024166246876120567 255 255 255
12.494635581970215 -2.5241832733154297 -1.5813626050949097 255 255 255
10.146200180053711 4.340655326843262 0.3621435761451721 255 255 255
11.672944068908691 -1.678040623664856 -1.5806037187576294 255 255 255
4.90303373336792 -3.6267964839935303 -0.8505263924598694 255 255 255
9.392582893371582 -4.534430027008057 -1.7694507837295532 255 255 255
6.711777210235596 3.871166467666626 0.3906099796295166 255 255 255
7.165822982788086 -3.895205020904541 -1.742646336555481 255 255 255
12.398168563842773 -8.849197387695312 0.4105665683746338 255 255 255
13.193628311157227 6.128660202026367 -0.7748216986656189 255 255 255
17.282859802246094 -5.250553131103516 -1.5900882482528687 255 255 255
4.833970546722412 -3.8070731163024902 -1.245226263999939 255 255 255
22.604867935180664 -11.1885347366333 -0.8763190507888794 255 255 255
7.297395706176758 -0.15683983266353607 -1.6860061883926392 255 255 255
13.251140594482422 2.824580669403076 0.34966808557510376 255 255 255
9.230167388916016 -8.636703491210938 -0.6983610987663269 255 255 255
8.870080947875977 -8.51077938079834 -0.15370804071426392 255 255 255
5.053593635559082 1.0912352800369263 -0.9666577577590942 255 255 255
10.090897560119629 -4.109415531158447 -1.708505392074585 255 255 255
45.714778900146484 -20.90967559814453 -1.3734056949615479 255 255 255
53.35283660888672 -14.807236671447754 0.8200246691703796 255 255 255
6.883587837219238 0.3506179451942444 -0.6258448958396912 255 255 255
8.413625717163086 3.005617618560791 -0.9223117828369141 255 255 255
7.929939270019531 -0.3979897201061249 -0.7630016803741455 255 255 255
12.291725158691406 -5.855123043060303 -1.7222543954849243 255 255 255
9.238625526428223 2.7019221782684326 -1.2139029502868652 255 255 255
38.58435821533203 -15.50594711303711 -1.3336467742919922 255 255 255
3.425846576690674 1.9883359670639038 -0.2434040606021881 255 255 255
8.251303672790527 -3.545790910720825 -1.7273057699203491 255 255 255
22.7069034576416 -2.9232113361358643 -0.0028873810078948736 255 255 255
13.76071834564209 3.0431206226348877 -0.2590298354625702 255 255 255
7.268300533294678 -2.2403948307037354 -1.6264163255691528 255 255 255
6.302725791931152 -2.229471445083618 -1.648362398147583 255 255 255
10.668353080749512 -4.547768592834473 -1.783900260925293 255 255 255
6.767141819000244 4.277303218841553 0.43752655386924744 255 255 255
11.511932373046875 -5.138867378234863 -1.7917468547821045 255 255 255
6.591338634490967 -2.41035532951355 -1.732831597328186 255 255 255
20.621845245361328 -12.25289535522461 0.7612307071685791 255 255 255
10.76150894165039 4.160030364990234 -0.053061503916978836 255 255 255
11.218053817749023 2.7259092330932617 0.11185570061206818 255 255 255
28.914165496826172 -8.160548210144043 -1.2605668306350708 255 255 255
9.107129096984863 -0.6518138647079468 -1.4762243032455444 255 255 255
9.630386352539062 3.2927842140197754 0.4646778702735901 255 255 255
18.670242309570312 -0.43154144287109375 -0.2568551301956177 255 255 255
6.511760711669922 0.739518940448761 -1.2213852405548096 255 255 255
7.032966136932373 -0.03887183219194412 -1.5890285968780518 255 255 255
6.65573263168335 0.7998074293136597 -1.657109260559082 255 255 255
15.491483688354492 -5.7232537269592285 -1.6466466188430786 255 255 255
9.14084243774414 2.7071495056152344 -1.027987003326416 255 255 255
9.31447982788086 -1.237101674079895 -1.5682042837142944 255 255 255
6.863589286804199 0.8599920868873596 -0.8150771260261536 255 255 255
11.76663589477539 -9.160572052001953 0.6596986651420593 255 255 255
4.859191417694092 -3.8261399269104004 -1.2342777252197266 255 255 255
13.650002479553223 -3.2305514812469482 -1.6205883026123047 255 255 255
17.94038200378418 1.479118824005127 -0.15952499210834503 255 255 255
8.8640775680542 -3.4671194553375244 -1.7462102174758911 255 255 255
6.512937545776367 1.1943989992141724 -1.5783368349075317 255 255 255
13.827496528625488 -9.172491073608398 0.7814813852310181 255 255 255
7.809867858886719 -7.802978038787842 -0.8959139585494995 255 255 255
8.628824234008789 -4.558011054992676 -1.7039334774017334 255 255 255
4.530505657196045 1.3862712383270264 -0.816198468208313 255 255 255
7.021304607391357 3.8202526569366455 0.17810925841331482 255 255 255
4.225275039672852 1.5331077575683594 -0.9570264220237732 255 255 255
9.730722427368164 -2.635904550552368 -1.5991438627243042 255 255 255
19.14452362060547 -13.052742004394531 0.24969328939914703 255 255 255
3.6818695068359375 1.8652642965316772 -0.3799658417701721 255 255 255
10.437322616577148 -9.935821533203125 0.40309029817581177 255 255 255
9.360681533813477 -1.1835228204727173 -1.7108409404754639 255 255 255
8.794501304626465 0.5959216952323914 -0.4176275432109833 255 255 255
19.299802780151367 -0.08587338775396347 -0.11607065051794052 255 255 255
7.596696853637695 -0.01814539171755314 -0.729678750038147 255 255 255
19.585208892822266 3.254410743713379 -0.5572196841239929 255 255 255
6.942929744720459 4.206267833709717 0.4359276294708252 255 255 255
11.373540878295898 -8.341310501098633 0.685336172580719 255 255 255
3.3595783710479736 2.12359881401062 -0.1607862263917923 255 255 255
6.304170608520508 -3.5196151733398438 -1.744730830192566 255 255 255
8.67436695098877 -0.633139967918396 -0.9003647565841675 255 255 255
8.9618558883667 -0.1884591281414032 -1.6089829206466675 255 255 255
8.711776733398438 -8.173893928527832 -0.7394319772720337 255 255 255
7.838782787322998 0.14282113313674927 -1.5036745071411133 255 255 255
53.53425216674805 -11.621682167053223 1.7294589281082153 255 255 255
38.14178466796875 -21.4362735748291 1.6369225978851318 255 255 255
3.896571159362793 1.6841762065887451 -0.682374894618988 255 255 255
40.67650604248047 -19.19944190979004 -1.4754632711410522 255 255 255
28.843202590942383 -12.8789644241333 -1.5782443284988403 255 255 255
15.014145851135254 -3.5368990898132324 -0.8404072523117065 255 255 255
15.506562232971191 -3.935576915740967 -1.5584315061569214 255 255 255
7.5683112144470215 3.677522659301758 0.24242208898067474 255 255 255
4.760295391082764 -4.002009868621826 -1.035406470298767 255 255 255
9.622725486755371 3.078336000442505 0.3795592784881592 255 255 255
7.077293395996094 0.7533646821975708 -1.4677443504333496 255 255 255
12.519157409667969 -9.883935928344727 -0.8927910923957825 255 255 255
8.675962448120117 -8.457854270935059 -0.40926721692085266 255 255 255
8.528392791748047 -0.5098963379859924 -1.122589349746704 255 255 255
7.550406455993652 -1.864890456199646 -1.7139348983764648 255 255 255
16.388486862182617 -7.560873985290527 -1.6091203689575195 255 255 255
3.3461382389068604 1.9419435262680054 -0.5478940010070801 255 255 255
34.53634262084961 -5.316854000091553 0.4823266863822937 255 255 255
13.958464622497559 -1.724700689315796 -0.033028267323970795 255 255 255
18.5225830078125 -9.325056076049805 -0.8269344568252563 255 255 255
3.247685432434082 2.06353497505188 -0.17472632229328156 255 255 255
3.452688694000244 1.8375290632247925 -0.6783677935600281 255 255 255
9.244104385375977 -3.116943597793579 -1.6849898099899292 255 255 255
13.477958679199219 -2.635326862335205 -1.6057775020599365 255 255 255
20.86760711669922 -8.915053367614746 -1.5112965106964111 255 255 255
18.02936553955078 0.11036939918994904 0.734805166721344 255 255 255
9.873023986816406 -9.233625411987305 0.35747888684272766 255 255 255
5.064724922180176 -4.1405134201049805 -0.4514288008213043 255 255 255
8.911948204040527 -0.3180990219116211 -1.620633602142334 255 255 255
14.846498489379883 6.590641975402832 -0.3047303259372711 255 255 255
20.223453521728516 3.0353941917419434 0.2612185776233673 255 255 255
18.12558364868164 -10.212876319885254 -0.6360241174697876 255 255 255
59.183990478515625 -29.877317428588867 0.5344411134719849 255 255 255
21.331615447998047 -2.1576993465423584 0.44744399189949036 255 255 255
8.051794052124023 -0.2537181079387665 -1.4253058433532715 255 255 255
19.430334091186523 -12.828352928161621 0.31998249888420105 255 255 255
16.4343318939209 5.8531389236450195 0.002373678144067526 255 255 255
7.5373945236206055 -0.6599920988082886 -1.7240080833435059 255 255 255
8.118826866149902 0.08239403367042542 -0.15645432472229004 255 255 255
8.904366493225098 -8.688945770263672 0.2319006472826004 255 255 255
8.17593002319336 0.09156486392021179 -1.6393524408340454 255 255 255
17.671607971191406 -12.101075172424316 -0.8542895913124084 255 255 255
17.753982543945312 2.0558364391326904 0.4668952226638794 255 255 255
9.377880096435547 -4.507044315338135 -1.6994891166687012 255 255 255
6.632665157318115 0.3969530761241913 -0.8990115523338318 255 255 255
21.810766220092773 2.3759653568267822 0.7645506262779236 255 255 255
32.02228927612305 -14.196195602416992 -1.5741206407546997 255 255 255
6.730162143707275 1.4351727962493896 -0.9745113849639893 255 255 255
10.631691932678223 2.711992025375366 -0.19938066601753235 255 255 255
8.194469451904297 5.178515434265137 -0.008879764005541801 255 255 255
51.42424011230469 -21.17707633972168 -0.17320510745048523 255 255 255
24.233163833618164 -10.867755889892578 -1.670548439025879 255 255 255
18.619901657104492 1.9340424537658691 0.7616629004478455 255 255 255
38.583953857421875 -21.21145248413086 -0.4174717962741852 255 255 255
26.595943450927734 -11.425161361694336 -1.6347438097000122 255 255 255
4.674025535583496 -4.220390796661377 -1.1266870498657227 255 255 255
13.077120780944824 -2.1116459369659424 -1.5721631050109863 255 255 255
7.020312309265137 0.11625418066978455 -0.7560496926307678 255 255 255
13.108223915100098 -1.3550995588302612 -0.5470209717750549 255 255 255
43.17757797241211 -8.546712875366211 0.33324411511421204 255 255 255
7.8498969078063965 -0.17891721427440643 -1.6463987827301025 255 255 255
21.26799964904785 -10.11624813079834 -1.6376420259475708 255 255 255
6.843451023101807 0.21956950426101685 -1.235640525817871 255 255 255
10.015157699584961 -8.825942039489746 0.28331005573272705 255 255 255
8.328582763671875 0.6377318501472473 -0.11877107620239258 255 255 255
10.820242881774902 -2.362665891647339 -1.6074286699295044 255 255 255
9.019309997558594 2.7185823917388916 -0.8985898494720459 255 255 255
6.388011932373047 0.7751821279525757 -1.6096680164337158 255 255 255
12.968965530395508 -1.9727967977523804 -0.909800112247467 255 255 255
19.706218719482422 -8.842487335205078 -1.6400119066238403 255 255 255
17.411823272705078 -11.90553092956543 -0.8847420811653137 255 255 255
18.25335121154785 0.49940040707588196 0.7389475107192993 255 255 255
8.50693416595459 -8.546967506408691 0.22823281586170197 255 255 255
8.165642738342285 -0.5068058967590332 -1.6044501066207886 255 255 255
6.961531162261963 0.4159770607948303 -0.7209237217903137 255 255 255
14.240606307983398 5.260252475738525 -0.5568717122077942 255 255 255
8.868346214294434 -5.071364879608154 -1.7469252347946167 255 255 255
12.869579315185547 3.0516257286071777 -0.3742275834083557 255 255 255
8.416586875915527 -0.02215118706226349 -1.5848489999771118 255 255 255
7.661034107208252 -7.840396404266357 -1.3297181129455566 255 255 255
23.69106674194336 -8.264174461364746 -1.5284966230392456 255 255 255
18.45481300354004 -7.4428839683532715 -1.6010280847549438 255 255 255
6.60148811340332 0.551630437374115 -1.5806658267974854 255 255 255
17.50408363342285 0.6999627947807312 0.26391682028770447 255 255 255
18.326719284057617 -9.684420585632324 -1.3660892248153687 255 255 255
8.135505676269531 -2.0736584663391113 -1.6721627712249756 255 255 255
16.971059799194336 7.2682013511657715 -0.05703004449605942 255 255 255
6.590627193450928 4.181971073150635 -0.0011616245610639453 255 255 255
6.328461170196533 -0.5354746580123901 -1.6869758367538452 255 255 255
18.6382999420166 -1.3866132497787476 -0.23683223128318787 255 255 255
19.104963302612305 -9.397526741027832 -1.5462496280670166 255 255 255
22.651670455932617 -9.752799034118652 -1.6375510692596436 255 255 255
53.50200653076172 -12.002482414245605 2.0358550548553467 255 255 255
10.09601879119873 -9.460823059082031 0.3927720785140991 255 255 255
8.903449058532715 0.6011688113212585 -0.6451466083526611 255 255 255
15.946202278137207 -11.285845756530762 -1.221840262413025 255 255 255
4.959065914154053 -3.566655397415161 -1.3481078147888184 255 255 255
19.915021896362305 -10.61131763458252 -1.741464614868164 255 255 255
11.913410186767578 -9.716992378234863 -0.9622207283973694 255 255 255
20.644399642944336 -1.250360369682312 0.8012693524360657 255 255 255
7.205792427062988 0.39705953001976013 -1.5460989475250244 255 255 255
11.433639526367188 5.346819877624512 0.5319964289665222 255 255 255
13.023443222045898 -1.7810087203979492 -1.290153980255127 255 255 255
8.264949798583984 -8.030736923217773 -1.3038288354873657 255 255 255
20.59501838684082 -2.4509565830230713 -0.14688661694526672 255 255 255
12.048131942749023 -5.0087666511535645 -1.7481874227523804 255 255 255
7.701905727386475 -4.349460124969482 -1.8217055797576904 255 255 255
14.836592674255371 -4.660154342651367 -1.5546177625656128 255 255 255
5.253430366516113 1.239188551902771 -1.0849848985671997 255 255 255
18.94770050048828 3.5810863971710205 0.08137672394514084 255 255 255
12.313753128051758 4.456395626068115 -0.8873579502105713 255 255 255
8.680011749267578 -8.620787620544434 0.18944644927978516 255 255 255
9.352567672729492 -2.3302090167999268 -1.700352430343628 255 255 255
15.680116653442383 1.3422369956970215 0.2553999125957489 255 255 255
8.137157440185547 -0.28984272480010986 -1.2033551931381226 255 255 255
10.379202842712402 4.5227885246276855 0.31904807686805725 255 255 255
14.68685531616211 -6.988671779632568 -1.7455055713653564 255 255 255
9.923789024353027 2.3630263805389404 0.5287860035896301 255 255 255
6.65350866317749 0.8422034382820129 -0.8090589046478271 255 255 255
9.209193229675293 -0.3160589933395386 -1.4974594116210938 255 255 255
6.908875465393066 1.2297275066375732 -0.6556856632232666 255 255 255
14.217401504516602 -2.9621760845184326 -1.6663539409637451 255 255 255
10.54516887664795 4.123428821563721 0.22455531358718872 255 255 255
3.427432060241699 2.013716697692871 -0.17443273961544037 255 255 255
8.120508193969727 -1.7953449487686157 -1.6658521890640259 255 255 255
4.032577037811279 1.6722651720046997 -0.8086667060852051 255 255 255
12.231660842895508 -2.6744513511657715 -1.5926626920700073 255 255 255
10.303853034973145 2.370312213897705 -0.7045724987983704 255 255 255
5.0981950759887695 1.1974835395812988 -0.8055517673492432 255 255 255
8.491714477539062 -0.5053174495697021 -0.8422192335128784 255 255 255
12.419249534606934 -5.463959217071533 -1.6911470890045166 255 255 255
10.795547485351562 2.055845260620117 -0.7421165108680725 255 255 255
13.401605606079102 -7.174104690551758 -1.698433756828308 255 255 255
22.28620719909668 -14.216007232666016 -0.44517210125923157 255 255 255
8.700397491455078 -8.464624404907227 -0.5915752053260803 255 255 255
4.942903995513916 2.0404255390167236 -0.6070957779884338 255 255 255
12.840712547302246 -2.125704050064087 -1.2430083751678467 255 255 255
6.318279266357422 -0.5751246809959412 -1.5648467540740967 255 255 255
6.480594158172607 4.334432601928711 0.31252390146255493 255 255 255
5.005049705505371 -3.442945718765259 -0.7443998456001282 255 255 255
13.137495994567871 -1.413604736328125 -0.7423576712608337 255 255 255
7.8470306396484375 -0.9924867153167725 -1.7357118129730225 255 255 255
12.821045875549316 -2.0460827350616455 -0.9967454671859741 255 255 255
15.387958526611328 1.795931339263916 0.4021843671798706 255 255 255
10.622401237487793 -4.078977108001709 -1.7291845083236694 255 255 255
22.112817764282227 -6.531109809875488 -1.4701712131500244 255 255 255
13.485274314880371 -6.570837497711182 -1.7698322534561157 255 255 255
13.537711143493652 4.147055625915527 -0.8908933997154236 255 255 255
6.507564067840576 -5.186525821685791 -0.835843563079834 255 255 255
13.255782127380371 6.52836275100708 -0.7773236036300659 255 255 255
3.6697378158569336 1.888304591178894 -0.5420863032341003 255 255 255
4.882371425628662 -3.5454509258270264 -1.1903983354568481 255 255 255
10.228760719299316 -8.678038597106934 0.36853837966918945 255 255 255
12.842641830444336 -2.2025580406188965 -0.7237847447395325 255 255 255
10.766655921936035 4.478088855743408 -0.9729065299034119 255 255 255
13.51771068572998 5.294672012329102 -0.7410973310470581 255 255 255
12.522385597229004 -4.103269100189209 -1.7148866653442383 255 255 255
9.344715118408203 -0.3497636616230011 -1.6250879764556885 255 255 255
10.034076690673828 -4.255041122436523 -1.7918508052825928 255 255 255
11.055645942687988 2.742981433868408 -0.01531978789716959 255 255 255
7.240025520324707 0.10373952239751816 -1.6306509971618652 255 255 255
30.990833282470703 -9.728436470031738 -1.0669612884521484 255 255 255
19.433258056640625 -6.401741981506348 -1.5405888557434082 255 255 255
13.249606132507324 6.252659797668457 -0.6791624426841736 255 255 255
12.882332801818848 -5.62616491317749 -1.7011536359786987 255 255 255
17.17707633972168 -5.645596027374268 -1.649940848350525 255 255 255
21.23787498474121 -2.5186002254486084 0.3619195520877838 255 255 255
7.497771263122559 -0.01597641035914421 -1.0888622999191284 255 255 255
7.7768707275390625 -7.647058010101318 -1.721449851989746 255 255 255
14.757732391357422 -3.3061060905456543 -1.5664575099945068 255 255 255
9.728662490844727 2.5044329166412354 -1.2075446844100952 255 255 255
3.3322131633758545 2.0590147972106934 -0.2412855327129364 255 255 255
17.195615768432617 4.22805643081665 0.6320568323135376 255 255 255
21.541738510131836 -0.9325558543205261 0.4351491332054138 255 255 255
4.386847972869873 -4.457322597503662 -1.029455304145813 255 255 255
10.709875106811523 -1.4185550212860107 -1.6265244483947754 255 255 255
7.086146354675293 3.8452181816101074 0.10228077322244644 255 255 255
6.571378231048584 1.1304208040237427 -0.9221739172935486 255 255 255
6.718379497528076 1.2250834703445435 -1.3156763315200806 255 255 255
6.75939416885376 4.16740083694458 0.2560845613479614 255 255 255
14.067217826843262 -7.161126613616943 -1.8319034576416016 255 255 255
6.955848693847656 0.19143913686275482 -1.2039244174957275 255 255 255
9.223560333251953 -0.8453074097633362 -0.9470120668411255 255 255 255
4.640140533447266 -4.259452819824219 -1.218117356300354 255 255 255
6.934173107147217 0.5533940196037292 -0.7492709755897522 255 255 255
22.560001373291016 -14.114297866821289 -1.3301249742507935 255 255 255
7.310855388641357 0.1771470010280609 -1.1382222175598145 255 255 255
3.582807779312134 2.212707757949829 -0.10528194159269333 255 255 255
5.232569694519043 1.210606336593628 -1.1976158618927002 255 255 255
11.899456977844238 -5.6421308517456055 -1.7100921869277954 255 255 255
12.953006744384766 -2.0289816856384277 -0.6101770997047424 255 255 255
3.982344627380371 1.7077620029449463 -0.801250696182251 255 255 255
8.792022705078125 0.4951723515987396 -0.5729098320007324 255 255 255
10.233816146850586 -2.588090658187866 -1.694605827331543 255 255 255
14.090677261352539 -5.574833869934082 -1.6832789182662964 255 255 255
3.584397077560425 1.9904260635375977 -0.14334815740585327 255 255 255
32.033695220947266 -14.35937786102295 -1.5321249961853027 255 255 255
7.289008140563965 -0.14230133593082428 -0.6693111062049866 255 255 255
18.66494369506836 -1.6473506689071655 -0.3351087272167206 255 255 255
9.536933898925781 2.4174866676330566 -0.8320703506469727 255 255 255
12.896385192871094 -9.450133323669434 0.3979254364967346 255 255 255
53.297401428222656 -12.515165328979492 1.9783707857131958 255 255 255
9.896672248840332 2.9385361671447754 0.3540934920310974 255 255 255
7.558938026428223 -3.4699394702911377 -1.7999467849731445 255 255 255
39.29218292236328 -21.386783599853516 0.34994444251060486 255 255 255
6.946317195892334 -1.7241404056549072 -1.636700987815857 255 255 255
19.326379776000977 -4.845664024353027 -1.5517077445983887 255 255 255
8.18063735961914 -1.352651834487915 -1.691249132156372 255 255 255
15.073580741882324 -8.989113807678223 -1.7113900184631348 255 255 255
5.231820583343506 -4.108222484588623 -0.3622189462184906 255 255 255
26.208372116088867 -6.9894819259643555 -1.3784658908843994 255 255 255
9.315874099731445 -0.8497923016548157 -1.5515928268432617 255 255 255
4.5180439949035645 1.3486913442611694 -1.0465461015701294 255 255 255
39.149967193603516 -21.268939971923828 0.863699197769165 255 255 255
16.374204635620117 -11.50133991241455 -0.8049190044403076 255 255 255
17.939899444580078 2.0760390758514404 0.4844939410686493 255 255 255
14.147394180297852 -3.1848368644714355 -1.1375906467437744 255 255 255
12.265646934509277 4.432177543640137 -0.8941017389297485 255 255 255
8.755715370178223 -3.578914165496826 -1.6686278581619263 255 255 255
26.949411392211914 -12.531475067138672 -1.6474450826644897 255 255 255
8.247382164001465 0.05870424956083298 -1.5747907161712646 255 255 255
17.593412399291992 2.8735008239746094 -0.7928340435028076 255 255 255
12.540203094482422 -2.7773237228393555 -1.6643420457839966 255 255 255
18.129671096801758 1.7330831289291382 0.4054439663887024 255 255 255
6.983043193817139 -4.035905361175537 -1.7593204975128174 255 255 255
11.886385917663574 -9.0699462890625 0.7272825837135315 255 255 255
13.547159194946289 6.135491847991943 -0.500868022441864 255 255 255
7.024528980255127 3.8772201538085938 -0.1039343848824501 255 255 255
9.03261947631836 -8.338690757751465 -0.12821097671985626 255 255 255
11.150626182556152 -8.993630409240723 0.3518730401992798 255 255 255
6.832820892333984 3.888291597366333 0.3262737989425659 255 255 255
12.994250297546387 -1.5846806764602661 -1.5073133707046509 255 255 255
20.33839988708496 2.9159555435180664 0.4857152998447418 255 255 255
7.473823547363281 0.5262029767036438 -1.5156866312026978 255 255 255
15.163639068603516 -8.893856048583984 -1.8294336795806885 255 255 255
11.62522029876709 -4.05863618850708 -1.746952772140503 255 255 255
9.419831275939941 -1.651469349861145 -1.6570671796798706 255 255 255
6.920485496520996 4.067379474639893 -0.347514271736145 255 255 255
6.6150312423706055 0.6831881403923035 -1.5828596353530884 255 255 255
13.856700897216797 3.165680170059204 -0.35025647282600403 255 255 255
6.823725700378418 0.1919599175453186 -0.9755783081054688 255 255 255
6.973941802978516 1.2646398544311523 -0.6690566539764404 255 255 255
13.01815414428711 -8.924175262451172 0.5874423980712891 255 255 255
10.210082054138184 -8.825447082519531 0.1662466675043106 255 255 255
19.80333709716797 3.238509178161621 -0.42492932081222534 255 255 255
6.845128536224365 0.5124678015708923 -1.623541235923767 255 255 255
18.69411277770996 -1.585060715675354 -0.7351799607276917 255 255 255
18.23733901977539 -1.4103031158447266 -0.8760547041893005 255 255 255
4.512934684753418 1.4024028778076172 -0.8311700820922852 255 255 255
19.170270919799805 -9.659820556640625 -0.391605406999588 255 255 255
6.68870210647583 1.1398203372955322 -1.3295670747756958 255 255 255
19.445131301879883 -12.797362327575684 -1.1279001235961914 255 255 255
39.19027328491211 -6.738356590270996 0.8575147986412048 255 255 255
18.388235092163086 -9.682068824768066 -1.4350770711898804 255 255 255
6.983846664428711 -0.7298388481140137 -1.6410307884216309 255 255 255
18.112733840942383 3.79534912109375 -0.021640993654727936 255 255 255
7.0073161125183105 1.2603195905685425 -0.6255857944488525 255 255 255
6.687656879425049 0.3372303545475006 -1.3464341163635254 255 255 255
8.240120887756348 -0.5406715869903564 -1.6502685546875 255 255 255
17.96678352355957 0.9951293468475342 -0.02324315346777439 255 255 255
5.090706825256348 -3.377450704574585 -1.0820993185043335 255 255 255
10.168204307556152 -1.1670730113983154 -1.5669951438903809 255 255 255
7.504699230194092 -2.5472214221954346 -1.7611441612243652 255 255 255
16.040695190429688 -11.575884819030762 -0.661794900894165 255 255 255
7.3919172286987305 1.5393577814102173 -1.5612722635269165 255 255 255
6.783452033996582 0.5262520909309387 -1.4508790969848633 255 255 255
4.316659450531006 1.4847042560577393 -0.9508910179138184 255 255 255
9.37055492401123 -0.4607614278793335 -1.625311255455017 255 255 255
25.747543334960938 -7.704872131347656 -1.4117196798324585 255 255 255
19.103185653686523 -12.53445816040039 -1.3596795797348022 255 255 255
52.40214157104492 -14.785582542419434 -0.2364288866519928 255 255 255
14.799177169799805 -5.519593715667725 -1.6786500215530396 255 255 255
11.431110382080078 5.273344993591309 0.5763941407203674 255 255 255
4.21079158782959 1.573873519897461 -0.8535614013671875 255 255 255
7.570654392242432 0.038656026124954224 -0.4007110893726349 255 255 255
6.07112455368042 -2.1674811840057373 -1.7190545797348022 255 255 255
5.158851623535156 1.119546890258789 -0.9443937540054321 255 255 255
11.17287540435791 2.4364397525787354 0.21026448905467987 255 255 255
11.053642272949219 -8.837966918945312 -0.006653389427810907 255 255 255
15.561705589294434 2.1717991828918457 0.6950964331626892 255 255 255
18.878562927246094 3.4843318462371826 0.7519403696060181 255 255 255
20.189401626586914 -13.305998802185059 -0.2391449511051178 255 255 255
13.143731117248535 6.858826160430908 -0.7054466605186462 255 255 255
13.074050903320312 -2.394181966781616 -1.4165475368499756 255 255 255
6.306516647338867 4.225741386413574 0.12312810122966766 255 255 255
8.41268253326416 0.07419779896736145 -0.43979355692863464 255 255 255
4.106548309326172 1.5891740322113037 -0.3051243722438812 255 255 255
7.516885280609131 -3.8849682807922363 -1.7538169622421265 255 255 255
10.21971321105957 -3.5134365558624268 -1.6927093267440796 255 255 255
4.913492679595947 -3.6493165493011475 -0.8197387456893921 255 255 255
9.112613677978516 2.7849321365356445 -1.1184042692184448 255 255 255
10.431985855102539 2.942486524581909 -0.17905400693416595 255 255 255
49.95600891113281 -26.770322799682617 1.073617696762085 255 255 255
7.112759113311768 3.9103763103485107 -0.27272161841392517 255 255 255
9.032716751098633 -8.472834587097168 -0.4850604236125946 255 255 255
10.878914833068848 2.0151264667510986 -0.7545587420463562 255 255 255
10.734601974487305 -8.857804298400879 0.24042360484600067 255 255 255
6.797128677368164 1.2818692922592163 -0.8223027586936951 255 255 255
72.54289245605469 -25.711891174316406 1.379884123802185 255 255 255
41.79646301269531 -7.806719779968262 0.2966780662536621 255 255 255
6.225921154022217 -1.6454368829727173 -1.6348901987075806 255 255 255
21.502206802368164 -0.9352227449417114 -0.1473051756620407 255 255 255
6.237992286682129 -2.808807849884033 -1.675876498222351 255 255 255
10.847925186157227 -8.983393669128418 0.380823016166687 255 255 255
14.747394561767578 -5.049594402313232 -1.5920897722244263 255 255 255
16.36071014404297 5.710044860839844 -0.1970517784357071 255 255 255
13.001309394836426 -1.662807822227478 -0.5494552850723267 255 255 255
6.7353835105896 0.6248216032981873 -0.9693200588226318 255 255 255
8.081055641174316 0.14625178277492523 -0.21814271807670593 255 255 255
18.270164489746094 0.31914183497428894 -0.12889160215854645 255 255 255
6.557304382324219 -3.600113868713379 -1.6959054470062256 255 255 255
8.443955421447754 -1.3504300117492676 -1.7444586753845215 255 255 255
6.78738260269165 -1.0539300441741943 -1.6404670476913452 255 255 255
7.15424108505249 3.8131392002105713 0.439080148935318 255 255 255
16.143739700317383 5.277906894683838 0.04908616468310356 255 255 255
37.96633529663086 -21.713153839111328 0.728269100189209 255 255 255
12.606280326843262 3.336998701095581 -0.9106231927871704 255 255 255
7.214903354644775 -3.555838108062744 -1.709082007408142 255 255 255
12.713018417358398 -8.809124946594238 0.7112193703651428 255 255 255
8.459318161010742 -1.8453576564788818 -1.6269903182983398 255 255 255
7.2221479415893555 3.7071921825408936 0.05411171168088913 255 255 255
9.908907890319824 0.5151740312576294 -0.4427618682384491 255 255 255
8.28399658203125 -0.26301664113998413 -0.3258436918258667 255 255 255
13.641531944274902 2.722111225128174 0.24487654864788055 255 255 255
8.434880256652832 -0.3631080090999603 -1.2292160987854004 255 255 255
6.811897277832031 0.655146062374115 -0.7631269097328186 255 255 255
14.77018928527832 -6.767471790313721 -1.710580825805664 255 255 255
13.21806812286377 -10.477568626403809 -0.46169009804725647 255 255 255
18.2625732421875 -12.226901054382324 -1.3310797214508057 255 255 255
4.922786235809326 -3.5629067420959473 -1.0541568994522095 255 255 255
17.885759353637695 4.038552761077881 -0.7871230840682983 255 255 255
9.945779800415039 -9.097811698913574 0.33488866686820984 255 255 255
16.4365234375 -4.860812664031982 -1.5539193153381348 255 255 255
10.668774604797363 4.2806854248046875 0.5455062389373779 255 255 255
4.384088516235352 1.3379311561584473 -0.5169575810432434 255 255 255
9.62105941772461 -3.6503353118896484 -1.6325123310089111 255 255 255
43.49164962768555 -11.565333366394043 0.3399601876735687 255 255 255
4.86282205581665 -3.9237020015716553 -1.0229157209396362 255 255 255
22.015871047973633 -6.3154168128967285 -1.522782564163208 255 255 255
8.451218605041504 -1.1764507293701172 -1.6740033626556396 255 255 255
3.2263143062591553 1.973246455192566 -0.8381655216217041 255 255 255
51.89899444580078 -21.084346771240234 0.36297157406806946 255 255 255
8.355669021606445 -8.09740161895752 -1.1491081714630127 255 255 255
13.920141220092773 -10.526555061340332 -0.20643067359924316 255 255 255
17.187164306640625 7.357053756713867 0.13345597684383392 255 255 255
9.3215913772583 -4.740941047668457 -1.696150541305542 255 255 255
14.060763359069824 -7.678472995758057 -1.7839769124984741 255 255 255
53.96636962890625 -11.262917518615723 1.0313477516174316 255 255 255
6.925065517425537 0.6394806504249573 -0.6035628318786621 255 255 255
73.53016662597656 -24.12344741821289 2.7928354740142822 255 255 255
13.116291999816895 -1.3742953538894653 -0.7791920900344849 255 255 255
4.921342372894287 -4.3905158042907715 -0.29700979590415955 255 255 255
7.676446437835693 -0.13606227934360504 -0.9466180205345154 255 255 255
21.105552673339844 -9.725325584411621 -1.7137079238891602 255 255 255
30.97434425354004 -9.912346839904785 -0.6325277090072632 255 255 255
73.64486694335938 -23.0758056640625 1.3920748233795166 255 255 255
64.39911651611328 -32.70462417602539 -0.7988070249557495 255 255 255
5.013565540313721 1.2332273721694946 -1.0946978330612183 255 255 255
6.6190032958984375 -3.3454701900482178 -1.7556523084640503 255 255 255
16.339279174804688 -3.9368319511413574 -1.5278680324554443 255 255 255
19.116636276245117 -12.946673393249512 0.14300253987312317 255 255 255
21.94186019897461 2.4580376148223877 0.10114242136478424 255 255 255
50.550987243652344 -19.209794998168945 -1.160910964012146 255 255 255
4.541894435882568 1.4032845497131348 -0.740725576877594 255 255 255
7.805200099945068 -7.753881931304932 -1.6208713054656982 255 255 255
53.40967559814453 -12.19998836517334 1.6513458490371704 255 255 255
6.964712619781494 -0.6678430438041687 -1.6065454483032227 255 255 255
12.964505195617676 -2.4573068618774414 -1.1645874977111816 255 255 255
6.7130913734436035 -0.3408293128013611 -1.6163102388381958 255 255 255
7.7948126792907715 -1.2780284881591797 -1.6576896905899048 255 255 255
9.114622116088867 -4.113128662109375 -1.588805079460144 255 255 255
4.533925533294678 -4.369760990142822 -0.9338953495025635 255 255 255
12.949904441833496 4.031652450561523 -0.9690532684326172 255 255 255
14.931535720825195 -10.77706527709961 -1.111018419265747 255 255 255
12.143922805786133 -1.6874040365219116 -1.6167125701904297 255 255 255
7.331423759460449 -2.5963244438171387 -1.668715000152588 255 255 255
8.04060173034668 -0.11224161088466644 -1.5768665075302124 255 255 255
6.912343502044678 0.8097304105758667 -0.7320255041122437 255 255 255
10.4535551071167 4.300568103790283 0.17031329870224 255 255 255
8.348287582397461 3.0684609413146973 -0.8090782761573792 255 255 255
16.26082420349121 4.78889799118042 0.02925785817205906 255 255 255
20.957117080688477 2.417325735092163 -0.5366203784942627 255 255 255
4.890445709228516 -3.7010138034820557 -0.8691539764404297 255 255 255
19.804399490356445 3.217134714126587 -0.25262799859046936 255 255 255
7.191102504730225 0.6350070834159851 -1.61414635181427 255 255 255
13.909963607788086 -2.91813325881958 -1.191907525062561 255 255 255
8.18735408782959 -1.584617018699646 -1.6311380863189697 255 255 255
6.323371410369873 0.5107023119926453 -1.188025712966919 255 255 255
8.191390991210938 -0.8911263942718506 -1.681225299835205 255 255 255
52.015689849853516 -21.085987091064453 -0.6172643899917603 255 255 255
6.797097206115723 -0.6775879263877869 -1.657692313194275 255 255 255
7.096100330352783 4.311225891113281 -0.12973909080028534 255 255 255
18.649368286132812 0.12849687039852142 0.6869755387306213 255 255 255
6.294617176055908 0.8826510906219482 -1.6119979619979858 255 255 255
13.527141571044922 -2.1687798500061035 -0.0589461475610733 255 255 255
7.390880107879639 -0.14890827238559723 -0.6227418780326843 255 255 255
7.613871097564697 -1.8629934787750244 -1.5921642780303955 255 255 255
14.184120178222656 -3.0214040279388428 -1.5716975927352905 255 255 255
3.606745958328247 1.863243579864502 -0.4152156114578247 255 255 255
19.529638290405273 2.5913727283477783 -0.8204231858253479 255 255 255
20.99286651611328 -13.457170486450195 -1.2367583513259888 255 255 255
4.815201282501221 -3.940852165222168 -1.3064591884613037 255 255 255
10.344660758972168 -5.445405960083008 -1.6715660095214844 255 255 255
18.131990432739258 -12.902368545532227 -0.01345851644873619 255 255 255
8.726115226745605 2.957285165786743 -0.8920126557350159 255 255 255
6.5671868324279785 -0.7329227924346924 -1.6974724531173706 255 255 255
12.946651458740234 -2.4341464042663574 -0.8303822875022888 255 255 255
10.490609169006348 2.0429725646972656 -0.795307457447052 255 255 255
7.0892791748046875 3.611131191253662 0.07274100929498672 255 255 255
11.563431739807129 -4.684467315673828 -1.6944161653518677 255 255 255
12.833494186401367 -9.120068550109863 0.6054324507713318 255 255 255
9.281432151794434 -8.984235763549805 -0.2605898082256317 255 255 255
4.305854797363281 1.4793651103973389 -0.8697256445884705 255 255 255
7.3524169921875 -1.4823801517486572 -1.7336844205856323 255 255 255
7.924227237701416 -0.9184366464614868 -1.6479451656341553 255 255 255
53.40922927856445 -13.060988426208496 1.425510287284851 255 255 255
9.252546310424805 -8.59299373626709 -0.9638030529022217 255 255 255
7.033244609832764 -0.437271386384964 -1.613727331161499 255 255 255
