ply
format ascii 1.0
element vertex 688
property float x
property float y
property float z
property uchar red
property uchar green
property uchar blue
end_header
24.607791900634766 -6.409460544586182 -1.402221918106079 255 255 255
24.51984977722168 -6.239889621734619 -1.5184804201126099 255 255 255
24.39264678955078 -6.19933557510376 -1.6232974529266357 255 255 255
24.57442283630371 -5.991754531860352 -1.4837864637374878 255 255 255
24.592580795288086 -5.990603446960449 -1.5145747661590576 255 255 255
24.53092384338379 -5.968429088592529 -1.5582985877990723 255 255 255
24.46047019958496 -5.804119110107422 -1.5058372020721436 255 255 255
24.381139755249023 -5.773427963256836 -1.5501278638839722 255 255 255
24.4301815032959 -5.723282814025879 -1.5149744749069214 255 255 255
24.388248443603516 -5.602945804595947 -1.5048967599868774 255 255 255
24.47169303894043 -5.48719596862793 -1.4676460027694702 255 255 255
24.321517944335938 -5.446259021759033 -1.5277012586593628 255 255 255
24.47350311279297 -5.283435821533203 -1.5392556190490723 255 255 255
24.43486213684082 -5.349896430969238 -1.5003048181533813 255 255 255
24.31340217590332 -5.135643482208252 -1.4837019443511963 255 255 255
24.30145263671875 -5.160066604614258 -1.4849510192871094 255 255 255
24.356624603271484 -5.0702033042907715 -1.5665825605392456 255 255 255
24.2868709564209 -5.0381903648376465 -1.5667763948440552 255 255 255
24.2493953704834 -4.863228797912598 -1.5043565034866333 255 255 255
24.173187255859375 -4.892531871795654 -1.5369346141815186 255 255 255
24.175222396850586 -4.689830780029297 -1.4268715381622314 255 255 255
24.126832962036133 -4.66038703918457 -1.4815326929092407 255 255 255
24.025924682617188 -4.632915496826172 -1.5890401601791382 255 255 255
24.096694946289062 -4.541138648986816 -1.496161937713623 255 255 255
24.072431564331055 -4.345107555389404 -1.427634596824646 255 255 255
24.175296783447266 -4.397347927093506 -1.476826548576355 255 255 255
24.096881866455078 -4.163465976715088 -1.4627172946929932 255 255 255
24.113147735595703 -4.173104763031006 -1.4851064682006836 255 255 255
24.068645477294922 -4.117918491363525 -1.4131804704666138 255 255 255
24.050432205200195 -4.099431991577148 -1.5218554735183716 255 255 255
24.186996459960938 -3.9521965980529785 -1.4985239505767822 255 255 255
24.0817928314209 -3.9962069988250732 -1.4289906024932861 255 255 255
24.084854125976562 -3.7999937534332275 -1.4558014869689941 255 255 255
24.017038345336914 -3.8336946964263916 -1.42122483253479 255 255 255
23.83555030822754 -3.676679849624634 -1.5455703735351562 255 255 255
23.659915924072266 -3.547661066055298 -1.4331636428833008 255 255 255
23.387699127197266 -3.4439847469329834 -1.3258858919143677 255 255 255
23.25452995300293 -3.3226842880249023 -1.3922094106674194 255 255 255
23.087244033813477 -3.255707025527954 -1.4319791793823242 255 255 255
23.148761749267578 -3.254568338394165 -1.362533450126648 255 255 255
23.070369720458984 -3.159120798110962 -1.331422209739685 255 255 255
22.931854248046875 -3.081880569458008 -1.3687913417816162 255 255 255
22.831478118896484 -2.8684611320495605 -1.2796024084091187 255 255 255
15.754715919494629 -2.0188302993774414 -0.9936148524284363 255 255 255
15.572697639465332 -1.9242827892303467 -0.8352183699607849 255 255 255
15.331879615783691 -1.8169515132904053 -0.7887629270553589 255 255 255
15.042572975158691 -1.7994883060455322 -0.8275108337402344 255 255 255
14.707465171813965 -1.683384656906128 -0.8337623476982117 255 255 255
14.573821067810059 -1.6272168159484863 -0.8031302094459534 255 255 255
14.367182731628418 -1.6531660556793213 -0.684846818447113 255 255 255
14.103503227233887 -1.5426433086395264 -0.8182286620140076 255 255 255
13.9088773727417 -1.4952466487884521 -0.736962080001831 255 255 255
13.78121280670166 -1.3167771100997925 -0.7343639135360718 255 255 255
13.55800724029541 -1.2931978702545166 -0.7247751355171204 255 255 255
13.47091007232666 -1.2456438541412354 -0.709528923034668 255 255 255
13.35108757019043 -1.1935604810714722 -0.7697085738182068 255 255 255
13.191314697265625 -1.0767285823822021 -0.616608202457428 255 255 255
13.164896011352539 -1.0771750211715698 -0.7351168394088745 255 255 255
12.992385864257812 -1.0093936920166016 -0.7430999875068665 255 255 255
12.974202156066895 -1.0467019081115723 -0.7306855320930481 255 255 255
12.936253547668457 -1.0190010070800781 -0.6233556270599365 255 255 255
13.050989151000977 -0.9512311220169067 -0.7469303011894226 255 255 255
12.88836669921875 -0.9765100479125977 -0.7272629737854004 255 255 255
12.982603073120117 -0.8127310872077942 -0.62837153673172 255 255 255
12.958965301513672 -0.8138063549995422 -0.6938796043395996 255 255 255
13.041191101074219 -0.7782787084579468 -0.6880568861961365 255 255 255
12.897812843322754 -0.7655152082443237 -0.6774383783340454 255 255 255
12.978569984436035 -0.632451057434082 -0.7429119944572449 255 255 255
13.038467407226562 -0.610755443572998 -0.7040889263153076 255 255 255
12.94090461730957 -0.6163911819458008 -0.6903380751609802 255 255 255
13.007634162902832 -0.521435558795929 -0.7206026315689087 255 255 255
13.013041496276855 -0.637861967086792 -0.7277697324752808 255 255 255
13.036282539367676 -0.5875483155250549 -0.7254044413566589 255 255 255
12.937625885009766 -0.5292794108390808 -0.6783748269081116 255 255 255
12.999881744384766 -0.4676137864589691 -0.7053539752960205 255 255 255
12.930632591247559 -0.3895984888076782 -0.6912480592727661 255 255 255
12.915660858154297 -0.40390411019325256 -0.7619248032569885 255 255 255
13.033964157104492 -0.31182241439819336 -0.6550820469856262 255 255 255
12.94327449798584 -0.30143940448760986 -0.6499455571174622 255 255 255
13.018735885620117 -0.2832043170928955 -0.6744824051856995 255 255 255
12.953418731689453 -0.22030189633369446 -0.649712085723877 255 255 255
12.974787712097168 -0.25963473320007324 -0.5765880346298218 255 255 255
13.014726638793945 -0.11016910523176193 -0.7240517139434814 255 255 255
12.992948532104492 -0.05438796803355217 -0.7036202549934387 255 255 255
12.975668907165527 -0.11276891827583313 -0.7387276291847229 255 255 255
13.100979804992676 -0.0335518904030323 -0.761081874370575 255 255 255
13.086569786071777 0.06379614770412445 -0.7097122669219971 255 255 255
13.171032905578613 0.06842583417892456 -0.7396761775016785 255 255 255
13.113539695739746 0.07416366785764694 -0.6967124938964844 255 255 255
13.22930908203125 0.13252310454845428 -0.5751685500144958 255 255 255
13.341012954711914 0.1680128425359726 -0.8808510303497314 255 255 255
13.395886421203613 0.23612171411514282 -0.7323867082595825 255 255 255
13.503355979919434 0.18262940645217896 -0.8927574157714844 255 255 255
13.554754257202148 0.2833428382873535 -0.7556166052818298 255 255 255
9.448236465454102 0.20616264641284943 -0.48886609077453613 255 255 255
9.348209381103516 0.27394190430641174 -0.5464895367622375 255 255 255
9.268845558166504 0.23300500214099884 -0.5138513445854187 255 255 255
9.19870376586914 0.3276517689228058 -0.46355175971984863 255 255 255
9.150373458862305 0.30741193890571594 -0.33804866671562195 255 255 255
9.01806926727295 0.3541406989097595 -0.5206429958343506 255 255 255
9.164687156677246 0.7024943232536316 -0.421415776014328 255 255 255
8.445396423339844 0.6218898892402649 -0.261393666267395 255 255 255
8.269729614257812 0.7314063906669617 -0.42402148246765137 255 255 255
8.278901100158691 0.5707288384437561 -0.4040950834751129 255 255 255
9.352107048034668 0.7933016419410706 -0.4400131404399872 255 255 255
8.399373054504395 0.7604909539222717 -0.5372273921966553 255 255 255
8.349919319152832 0.7931808233261108 -0.4302690923213959 255 255 255
7.737646102905273 0.6761975288391113 -0.3951892852783203 255 255 255
7.71375036239624 0.7704979181289673 -0.32638871669769287 255 255 255
7.693790912628174 0.7794668674468994 -0.42544251680374146 255 255 255
7.623433589935303 0.7927416563034058 -0.44532957673072815 255 255 255
8.400418281555176 1.0276105403900146 -0.38794898986816406 255 255 255
8.380393981933594 0.9504367113113403 -0.35666221380233765 255 255 255
9.363792419433594 1.1401787996292114 -0.44981804490089417 255 255 255
9.379496574401855 1.159436821937561 -0.5053941011428833 255 255 255
9.3440580368042 1.251766324043274 -0.6103811264038086 255 255 255
9.392365455627441 1.2210460901260376 -0.414750337600708 255 255 255
9.408594131469727 1.299647331237793 -0.5112167000770569 255 255 255
9.307345390319824 1.3482319116592407 -0.5126649141311646 255 255 255
9.44153118133545 1.288236379623413 -0.5040366649627686 255 255 255
9.429689407348633 1.3257554769515991 -0.6004266738891602 255 255 255
9.415809631347656 1.4482356309890747 -0.4812632203102112 255 255 255
8.931675910949707 1.3890461921691895 -0.4938914477825165 255 255 255
8.762447357177734 1.3153295516967773 -0.38888978958129883 255 255 255
8.832674026489258 1.3837283849716187 -0.3970969617366791 255 255 255
8.79318618774414 1.4631465673446655 -0.539460301399231 255 255 255
8.814181327819824 1.5068507194519043 -0.469218909740448 255 255 255
8.672039031982422 1.5457037687301636 -0.3949507772922516 255 255 255
8.790718078613281 1.4716317653656006 -0.4084477126598358 255 255 255
8.802705764770508 1.5467957258224487 -0.5128379464149475 255 255 255
8.900559425354004 1.549574375152588 -0.4049766957759857 255 255 255
8.76794719696045 1.632164716720581 -0.5377091765403748 255 255 255
8.852999687194824 1.645955204963684 -0.5119614005088806 255 255 255
8.881896018981934 1.6094011068344116 -0.4594060778617859 255 255 255
8.976719856262207 1.6976314783096313 -0.48050808906555176 255 255 255
9.226851463317871 1.759960412979126 -0.507854700088501 255 255 255
8.716054916381836 1.6954373121261597 -0.39119985699653625 255 255 255
8.770553588867188 1.757865309715271 -0.31792524456977844 255 255 255
8.673962593078613 1.8847368955612183 -0.3873283267021179 255 255 255
8.712692260742188 1.8566405773162842 -0.4957762062549591 255 255 255
8.659527778625488 1.9149699211120605 -0.4541378319263458 255 255 255
7.976175785064697 2.121666669845581 -0.37003448605537415 255 255 255
7.919496536254883 2.1782126426696777 -0.3684374988079071 255 255 255
7.891725063323975 2.032407760620117 -0.4063119888305664 255 255 255
14.470904350280762 4.0429840087890625 -0.8357439041137695 255 255 255
14.400394439697266 4.046958923339844 -0.9340807199478149 255 255 255
14.462940216064453 4.114339828491211 -0.8802042603492737 255 255 255
14.516576766967773 4.2588372230529785 -0.8469312191009521 255 255 255
10.79531478881836 3.1833207607269287 -0.6960378289222717 255 255 255
14.369733810424805 4.254763126373291 -0.9623765349388123 255 255 255
14.351128578186035 4.300705432891846 -0.9550060629844666 255 255 255
10.618971824645996 3.1459474563598633 -0.6082155704498291 255 255 255
14.336782455444336 4.503242492675781 -0.8098652958869934 255 255 255
14.350434303283691 4.459383487701416 -0.9042130708694458 255 255 255
14.205303192138672 4.432945728302002 -0.8195934891700745 255 255 255
14.160921096801758 4.425785064697266 -0.889927864074707 255 255 255
14.121185302734375 4.524551868438721 -0.8339628577232361 255 255 255
14.006412506103516 4.4984636306762695 -0.9078871011734009 255 255 255
10.275757789611816 3.376544237136841 -0.6167783141136169 255 255 255
13.931597709655762 4.625730991363525 -0.9822689294815063 255 255 255
13.928030967712402 4.720676422119141 -0.8050616979598999 255 255 255
13.88807487487793 4.835779190063477 -0.7923948168754578 255 255 255
10.06452465057373 3.4806745052337646 -0.5403957366943359 255 255 255
9.870704650878906 3.4741764068603516 -0.6323497891426086 255 255 255
9.815933227539062 3.527172565460205 -0.4605248272418976 255 255 255
9.855718612670898 3.476285696029663 -0.5385033488273621 255 255 255
13.034119606018066 4.707071304321289 -0.765138566493988 255 255 255
12.950345039367676 4.746999263763428 -0.8531012535095215 255 255 255
12.780353546142578 4.694967269897461 -0.8565001487731934 255 255 255
12.9395170211792 4.828244209289551 -0.8863579630851746 255 255 255
9.476327896118164 3.5957536697387695 -0.5691734552383423 255 255 255
13.103611946105957 4.991297245025635 -0.9073997139930725 255 255 255
12.94800853729248 4.950589656829834 -0.7194536924362183 255 255 255
13.286171913146973 5.144861221313477 -0.8659189343452454 255 255 255
13.335535049438477 5.22272253036499 -0.8791170120239258 255 255 255
9.288349151611328 3.6581687927246094 -0.5598967671394348 255 255 255
9.105345726013184 3.623600959777832 -0.552939772605896 255 255 255
9.133387565612793 3.6778950691223145 -0.5670769810676575 255 255 255
9.099442481994629 3.709125518798828 -0.5301584005355835 255 255 255
13.236732482910156 5.404073238372803 -0.9259246587753296 255 255 255
13.142824172973633 5.506978511810303 -0.8679165244102478 255 255 255
8.938577651977539 3.7799580097198486 -0.5388672351837158 255 255 255
13.076190948486328 5.598970413208008 -0.7737986445426941 255 255 255
13.01295280456543 5.492438316345215 -0.73638516664505 255 255 255
8.889623641967773 3.8879618644714355 -0.6236159801483154 255 255 255
12.887880325317383 5.56021785736084 -0.8662189245223999 255 255 255
12.999824523925781 5.706338405609131 -0.8781496286392212 255 255 255
12.93835163116455 5.656795024871826 -0.869309663772583 255 255 255
12.841194152832031 5.70896053314209 -0.762367308139801 255 255 255
12.83545207977295 5.8198323249816895 -0.7989681959152222 255 255 255
12.793261528015137 5.762320041656494 -0.8956698179244995 255 255 255
12.652054786682129 5.760760307312012 -0.8554292917251587 255 255 255
8.482171058654785 3.951894760131836 -0.4795701801776886 255 255 255
12.803790092468262 5.952999114990234 -0.9428818821907043 255 255 255
12.712903022766113 5.940779209136963 -0.7983695268630981 255 255 255
12.558393478393555 6.037846565246582 -0.82212233543396 255 255 255
12.745850563049316 6.038562774658203 -0.846849262714386 255 255 255
12.64797592163086 6.156407833099365 -0.8934968709945679 255 255 255
12.550346374511719 6.108817100524902 -0.8898707628250122 255 255 255
12.644134521484375 6.17819881439209 -0.7825331091880798 255 255 255
12.579337120056152 6.205036640167236 -0.761943519115448 255 255 255
12.597600936889648 6.1790571212768555 -0.8206824660301208 255 255 255
12.55054759979248 6.2484283447265625 -0.772737443447113 255 255 255
12.553425788879395 6.247890949249268 -0.7469737529754639 255 255 255
12.474384307861328 6.406160354614258 -0.7706353664398193 255 255 255
12.461076736450195 6.346990585327148 -0.9026716351509094 255 255 255
7.929248332977295 4.066293716430664 -0.3926759660243988 255 255 255
12.410038948059082 6.493135452270508 -0.8587821125984192 255 255 255
12.453693389892578 6.560856819152832 -0.7797251343727112 255 255 255
12.642241477966309 6.643655776977539 -0.7353427410125732 255 255 255
10.333257675170898 5.510934352874756 -0.6089779734611511 255 255 255
10.311980247497559 5.529698371887207 -0.585083544254303 255 255 255
10.400811195373535 5.622103691101074 -0.5551862120628357 255 255 255
10.354757308959961 5.619136333465576 -0.6517893075942993 255 255 255
10.284605979919434 5.814974784851074 -0.682868242263794 255 255 255
12.256216049194336 6.92296838760376 -0.7999894022941589 255 255 255
12.292115211486816 6.932963848114014 -0.8235917687416077 255 255 255
12.382719039916992 7.125755786895752 -0.822147786617279 255 255 255
12.271309852600098 7.11676549911499 -0.8411828875541687 255 255 255
12.337942123413086 7.081676959991455 -0.871233344078064 255 255 255
12.412402153015137 7.074947834014893 -0.8572064638137817 255 255 255
12.286612510681152 7.210086822509766 -0.907872200012207 255 255 255
12.283592224121094 7.295738697052002 -0.9024919271469116 255 255 255
12.004507064819336 7.27982759475708 -0.9172313213348389 255 255 255
12.191757202148438 7.419358253479004 -0.8731874227523804 255 255 255
12.228938102722168 7.50399112701416 -0.8002411127090454 255 255 255
12.289776802062988 7.5169196128845215 -0.752420961856842 255 255 255
12.354687690734863 7.63440465927124 -0.8994264602661133 255 255 255
12.305102348327637 7.768030643463135 -0.8721954226493835 255 255 255
12.178245544433594 7.722328186035156 -0.8456605076789856 255 255 255
12.10427188873291 7.637505054473877 -0.8722342252731323 255 255 255
6.926791667938232 4.37802791595459 -0.42690765857696533 255 255 255
12.42294692993164 7.866978168487549 -0.8562381863594055 255 255 255
3.6726913452148438 2.6069986820220947 -0.14055266976356506 255 255 255
3.629288673400879 2.7085940837860107 -0.19277681410312653 255 255 255
3.639580249786377 2.636542320251465 -0.23779234290122986 255 255 255
3.6318652629852295 2.676776885986328 -0.18524082005023956 255 255 255
3.544811248779297 2.679551601409912 -0.187317356467247 255 255 255
3.6327075958251953 2.7228307723999023 -0.11708606779575348 255 255 255
3.6132829189300537 2.7380521297454834 -0.20515678822994232 255 255 255
3.586498498916626 2.7193775177001953 -0.15696434676647186 255 255 255
3.581206798553467 2.7453980445861816 -0.052377719432115555 255 255 255
3.659409761428833 2.7528913021087646 -0.15857549011707306 255 255 255
3.572183847427368 2.7657573223114014 -0.14317084848880768 255 255 255
3.53769850730896 2.6921815872192383 -0.2191874086856842 255 255 255
3.5951178073883057 2.7849268913269043 -0.13453006744384766 255 255 255
3.522143840789795 2.8224806785583496 -0.20901383459568024 255 255 255
3.4875903129577637 2.7119925022125244 -0.12154287099838257 255 255 255
3.606008529663086 2.7193808555603027 -0.2326422780752182 255 255 255
3.479979991912842 2.834196090698242 -0.10930658876895905 255 255 255
3.4381933212280273 2.7744574546813965 -0.20690922439098358 255 255 255
3.432729721069336 2.813746929168701 -0.07846371084451675 255 255 255
3.488967180252075 2.8523221015930176 -0.09329991787672043 255 255 255
3.4129951000213623 2.833237648010254 -0.13192856311798096 255 255 255
3.581087589263916 2.7462806701660156 -0.08670946210622787 255 255 255
7.421504020690918 6.123877048492432 -0.42644232511520386 255 255 255
8.733335494995117 -7.066741943359375 -0.5810428261756897 255 255 255
8.924660682678223 -7.14831018447876 -0.6946843266487122 255 255 255
9.041769027709961 -7.300480842590332 -0.6264391541481018 255 255 255
9.205534934997559 -7.317295074462891 -0.6935355067253113 255 255 255
9.071298599243164 -7.326328754425049 -0.73299241065979 255 255 255
9.213717460632324 -7.41259241104126 -0.6970639824867249 255 255 255
9.332219123840332 -7.382977485656738 -0.6608059406280518 255 255 255
9.471976280212402 -7.436146259307861 -0.7809744477272034 255 255 255
9.497476577758789 -7.406801223754883 -0.700855553150177 255 255 255
9.623832702636719 -7.448873043060303 -0.7303652167320251 255 255 255
9.759950637817383 -7.447604179382324 -0.7570131421089172 255 255 255
9.942831993103027 -7.526913166046143 -0.6998520493507385 255 255 255
9.975334167480469 -7.541961193084717 -0.7511523962020874 255 255 255
9.979032516479492 -7.595808506011963 -0.71205735206604 255 255 255
10.167744636535645 -7.726500034332275 -0.7675930261611938 255 255 255
10.252674102783203 -7.643940448760986 -0.6344636678695679 255 255 255
10.348435401916504 -7.656064033508301 -0.794333815574646 255 255 255
10.390630722045898 -7.756412029266357 -0.7126718759536743 255 255 255
10.497749328613281 -7.808584213256836 -0.7827356457710266 255 255 255
10.702557563781738 -7.778607368469238 -0.7800533771514893 255 255 255
10.636054039001465 -7.761848449707031 -0.7428538203239441 255 255 255
11.487007141113281 -8.240996360778809 -0.9086674451828003 255 255 255
11.19273853302002 -8.010833740234375 -0.8185522556304932 255 255 255
11.188162803649902 -7.862123489379883 -0.8595636487007141 255 255 255
11.378094673156738 -8.052396774291992 -0.6799473762512207 255 255 255
11.376816749572754 -7.957845687866211 -0.7998031973838806 255 255 255
11.341144561767578 -7.921154022216797 -0.8234425783157349 255 255 255
11.441466331481934 -7.958712577819824 -0.7861274480819702 255 255 255
11.440969467163086 -7.8171000480651855 -0.8138037323951721 255 255 255
11.39463996887207 -7.821997165679932 -0.7883370518684387 255 255 255
11.597110748291016 -7.852573871612549 -0.7817113399505615 255 255 255
11.704070091247559 -7.865947246551514 -0.8675209879875183 255 255 255
11.834155082702637 -7.983722686767578 -0.8114938735961914 255 255 255
12.064879417419434 -7.980326175689697 -0.8433673977851868 255 255 255
12.19287109375 -8.151116371154785 -0.8799201846122742 255 255 255
12.345956802368164 -8.127732276916504 -0.896756649017334 255 255 255
12.50433349609375 -8.129825592041016 -0.9184544682502747 255 255 255
12.639678955078125 -8.239782333374023 -0.936410129070282 255 255 255
12.725130081176758 -8.28088665008545 -0.8573620915412903 255 255 255
12.98205852508545 -8.281717300415039 -0.9203075170516968 255 255 255
13.075911521911621 -8.307879447937012 -0.9400724768638611 255 255 255
13.301681518554688 -8.31375789642334 -1.0220303535461426 255 255 255
13.405795097351074 -8.541285514831543 -0.9448260068893433 255 255 255
13.667572975158691 -8.536454200744629 -0.8942866325378418 255 255 255
13.726984977722168 -8.530561447143555 -0.9971907138824463 255 255 255
13.914372444152832 -8.516121864318848 -0.9777637124061584 255 255 255
14.051880836486816 -8.674836158752441 -1.045112133026123 255 255 255
14.335088729858398 -8.638608932495117 -0.9872543215751648 255 255 255
14.415908813476562 -8.776986122131348 -1.0315710306167603 255 255 255
14.685240745544434 -8.799253463745117 -1.0804089307785034 255 255 255
14.80959415435791 -8.817447662353516 -1.0708773136138916 255 255 255
15.051615715026855 -8.971386909484863 -1.0429719686508179 255 255 255
15.358851432800293 -9.003397941589355 -1.1179558038711548 255 255 255
15.491323471069336 -9.074776649475098 -1.141951560974121 255 255 255
15.693593978881836 -9.13988971710205 -1.1734790802001953 255 255 255
16.122217178344727 -9.271760940551758 -1.1967498064041138 255 255 255
16.089319229125977 -9.267034530639648 -1.2334034442901611 255 255 255
16.666208267211914 -9.390851020812988 -1.2122620344161987 255 255 255
16.892210006713867 -9.462051391601562 -1.2146883010864258 255 255 255
17.17886734008789 -9.50454044342041 -1.218584418296814 255 255 255
17.31375503540039 -9.598301887512207 -1.2512351274490356 255 255 255
17.680706024169922 -9.681671142578125 -1.2837505340576172 255 255 255
17.904529571533203 -9.79542064666748 -1.3537791967391968 255 255 255
18.160030364990234 -9.853926658630371 -1.298620343208313 255 255 255
18.499055862426758 -9.959564208984375 -1.4635109901428223 255 255 255
18.86514663696289 -9.953937530517578 -1.4474544525146484 255 255 255
19.130748748779297 -10.102828979492188 -1.3384891748428345 255 255 255
19.348922729492188 -10.213530540466309 -1.398625373840332 255 255 255
19.567007064819336 -10.177448272705078 -1.4614752531051636 255 255 255
19.329755783081055 -9.976997375488281 -1.399848222732544 255 255 255
20.444541931152344 -10.600579261779785 -1.529929518699646 255 255 255
20.77766990661621 -10.597189903259277 -1.5073045492172241 255 255 255
21.072355270385742 -10.682923316955566 -1.5409599542617798 255 255 255
21.435768127441406 -10.79843521118164 -1.5554780960083008 255 255 255
21.809131622314453 -10.813746452331543 -1.6815547943115234 255 255 255
22.24216079711914 -11.150102615356445 -1.7268445491790771 255 255 255
22.59392547607422 -11.141051292419434 -1.6690126657485962 255 255 255
23.08012580871582 -11.274582862854004 -1.6367201805114746 255 255 255
23.514482498168945 -11.345088005065918 -1.7317403554916382 255 255 255
23.804534912109375 -11.551762580871582 -1.7654705047607422 255 255 255
23.892620086669922 -11.44205093383789 -1.7147136926651 255 255 255
23.87458610534668 -11.288331985473633 -1.793811321258545 255 255 255
24.03938102722168 -11.304971694946289 -1.6493715047836304 255 255 255
24.030866622924805 -11.169770240783691 -1.7794134616851807 255 255 255
24.05226707458496 -11.191981315612793 -1.7729862928390503 255 255 255
23.985177993774414 -10.911320686340332 -1.7808184623718262 255 255 255
24.037660598754883 -10.991798400878906 -1.758725643157959 255 255 255
24.040010452270508 -10.945906639099121 -1.8355989456176758 255 255 255
23.961698532104492 -10.830683708190918 -1.7572282552719116 255 255 255
18.978681564331055 -8.469213485717773 -1.3193280696868896 255 255 255
19.035776138305664 -8.444255828857422 -1.4250839948654175 255 255 255
19.145587921142578 -8.41347885131836 -1.4110867977142334 255 255 255
19.026866912841797 -8.298852920532227 -1.201770544052124 255 255 255
19.027788162231445 -8.387955665588379 -1.36186683177948 255 255 255
19.145570755004883 -8.294124603271484 -1.313082218170166 255 255 255
19.101499557495117 -8.109345436096191 -1.2649667263031006 255 255 255
19.108089447021484 -8.04110050201416 -1.3387590646743774 255 255 255
19.221174240112305 -8.051076889038086 -1.3584035634994507 255 255 255
19.2197322845459 -7.922317028045654 -1.228682518005371 255 255 255
19.11675262451172 -7.855314254760742 -1.3508223295211792 255 255 255
19.128551483154297 -7.871376037597656 -1.2924299240112305 255 255 255
19.21236228942871 -7.867172718048096 -1.2458754777908325 255 255 255
19.248018264770508 -7.712131023406982 -1.3105987310409546 255 255 255
19.262989044189453 -7.638041973114014 -1.2320659160614014 255 255 255
19.262338638305664 -7.612783432006836 -1.3097121715545654 255 255 255
19.275169372558594 -7.544388294219971 -1.2737785577774048 255 255 255
19.280916213989258 -7.483589172363281 -1.349587082862854 255 255 255
19.3147029876709 -7.537631511688232 -1.3489047288894653 255 255 255
19.39141845703125 -7.449850559234619 -1.3219897747039795 255 255 255
19.385461807250977 -7.383971691131592 -1.2986538410186768 255 255 255
19.41863441467285 -7.225315570831299 -1.3500868082046509 255 255 255
19.504186630249023 -7.239574909210205 -1.367804765701294 255 255 255
19.609140396118164 -7.1866021156311035 -1.305298924446106 255 255 255
19.728294372558594 -7.1358113288879395 -1.3901690244674683 255 255 255
24.285118103027344 -8.771112442016602 -1.6815210580825806 255 255 255
24.04986000061035 -8.656170845031738 -1.6928150653839111 255 255 255
24.124835968017578 -8.533706665039062 -1.7199242115020752 255 255 255
24.068296432495117 -8.472199440002441 -1.735592007637024 255 255 255
23.949569702148438 -8.484757423400879 -1.6642539501190186 255 255 255
24.1109561920166 -8.369263648986816 -1.6323095560073853 255 255 255
23.990766525268555 -8.282551765441895 -1.7151110172271729 255 255 255
23.914615631103516 -8.197075843811035 -1.6299257278442383 255 255 255
23.87201690673828 -7.99344539642334 -1.658185362815857 255 255 255
23.85010528564453 -8.00066089630127 -1.6718223094940186 255 255 255
23.75141143798828 -7.825265884399414 -1.643022060394287 255 255 255
23.733795166015625 -7.697054386138916 -1.6508482694625854 255 255 255
23.686553955078125 -7.721271514892578 -1.6265549659729004 255 255 255
23.623905181884766 -7.626977920532227 -1.7443900108337402 255 255 255
23.72396469116211 -7.5139384269714355 -1.6026419401168823 255 255 255
23.671024322509766 -7.395802021026611 -1.592611312866211 255 255 255
23.67489242553711 -7.345244884490967 -1.661752462387085 255 255 255
23.53421974182129 -7.220805644989014 -1.5615229606628418 255 255 255
23.552473068237305 -7.150790691375732 -1.603817343711853 255 255 255
23.4657039642334 -7.096583843231201 -1.6266732215881348 255 255 255
23.329599380493164 -7.013025760650635 -1.6061955690383911 255 255 255
23.43954849243164 -6.932291507720947 -1.6125446557998657 255 255 255
23.382078170776367 -6.755019187927246 -1.607548475265503 255 255 255
23.3531551361084 -6.671937465667725 -1.6192572116851807 255 255 255
23.31195831298828 -6.65324068069458 -1.5796819925308228 255 255 255
23.281343460083008 -6.622004985809326 -1.5601592063903809 255 255 255
23.21167755126953 -6.4956583976745605 -1.5577510595321655 255 255 255
23.18520164489746 -6.341091156005859 -1.4827817678451538 255 255 255
23.224966049194336 -6.282087326049805 -1.664267897605896 255 255 255
23.179330825805664 -6.2969231605529785 -1.573119878768921 255 255 255
23.208114624023438 -6.193381309509277 -1.5635321140289307 255 255 255
23.132192611694336 -6.074952602386475 -1.5429662466049194 255 255 255
23.17298126220703 -6.000108242034912 -1.524423599243164 255 255 255
23.207088470458984 -5.936067581176758 -1.5407596826553345 255 255 255
23.147733688354492 -5.884853363037109 -1.664127230644226 255 255 255
23.17333221435547 -5.78527307510376 -1.5867278575897217 255 255 255
23.148345947265625 -5.658836364746094 -1.5353814363479614 255 255 255
23.08695411682129 -5.583084583282471 -1.4772201776504517 255 255 255
23.082242965698242 -5.501960754394531 -1.53276789188385 255 255 255
23.093196868896484 -5.475021839141846 -1.5543304681777954 255 255 255
22.98501205444336 -5.366337299346924 -1.5747878551483154 255 255 255
23.017335891723633 -5.319243907928467 -1.5035877227783203 255 255 255
22.90462303161621 -5.2965779304504395 -1.5212461948394775 255 255 255
22.977720260620117 -5.234225749969482 -1.4980448484420776 255 255 255
22.969894409179688 -5.135735511779785 -1.4523881673812866 255 255 255
22.944599151611328 -4.9954400062561035 -1.5529865026474 255 255 255
22.918689727783203 -4.976325511932373 -1.5817731618881226 255 255 255
23.005577087402344 -4.827693939208984 -1.5445128679275513 255 255 255
22.88677978515625 -4.897253036499023 -1.6268925666809082 255 255 255
22.726760864257812 -4.729899883270264 -1.5395475625991821 255 255 255
22.800411224365234 -4.683411598205566 -1.5231819152832031 255 255 255
22.734235763549805 -4.549097537994385 -1.577357292175293 255 255 255
22.730159759521484 -4.488268852233887 -1.49412202835083 255 255 255
22.688488006591797 -4.418768405914307 -1.528560996055603 255 255 255
22.78551483154297 -4.300532817840576 -1.4930533170700073 255 255 255
22.746341705322266 -4.331221580505371 -1.556381344795227 255 255 255
22.693532943725586 -4.172824859619141 -1.4802725315093994 255 255 255
22.746854782104492 -4.271533012390137 -1.5425865650177002 255 255 255
22.62769889831543 -4.075068473815918 -1.4840285778045654 255 255 255
22.62167739868164 -3.9826557636260986 -1.4187147617340088 255 255 255
22.60765838623047 -3.9695167541503906 -1.5346928834915161 255 255 255
22.55579948425293 -3.991873025894165 -1.4361170530319214 255 255 255
22.550626754760742 -3.757190227508545 -1.4698759317398071 255 255 255
22.54268455505371 -3.743043899536133 -1.5480685234069824 255 255 255
22.528182983398438 -3.621089220046997 -1.3934510946273804 255 255 255
22.570068359375 -3.538346767425537 -1.4875028133392334 255 255 255
22.635168075561523 -3.4654555320739746 -1.4645367860794067 255 255 255
22.73251724243164 -3.4783546924591064 -1.4904558658599854 255 255 255
22.67152976989746 -3.3905696868896484 -1.4671930074691772 255 255 255
22.605791091918945 -3.306532144546509 -1.4749506711959839 255 255 255
22.42827606201172 -3.2804408073425293 -1.5160017013549805 255 255 255
22.237934112548828 -3.178649663925171 -1.3950722217559814 255 255 255
22.083221435546875 -3.022463321685791 -1.5341383218765259 255 255 255
22.002975463867188 -2.9868857860565186 -1.3978630304336548 255 255 255
21.827136993408203 -2.917846441268921 -1.4628517627716064 255 255 255
16.127811431884766 -2.0928001403808594 -1.0085701942443848 255 255 255
16.025800704956055 -2.1089627742767334 -0.976276695728302 255 255 255
15.573407173156738 -1.9222607612609863 -0.8937479257583618 255 255 255
15.37208080291748 -1.863944411277771 -0.9433254599571228 255 255 255
15.040922164916992 -1.7960864305496216 -0.9096708297729492 255 255 255
14.824832916259766 -1.6673400402069092 -0.8539458513259888 255 255 255
14.604991912841797 -1.730967402458191 -0.912453830242157 255 255 255
14.32764720916748 -1.6016900539398193 -0.963054358959198 255 255 255
14.144370079040527 -1.4645596742630005 -0.8651150465011597 255 255 255
13.933536529541016 -1.5056416988372803 -0.8025590777397156 255 255 255
13.74293327331543 -1.4140887260437012 -0.7787600159645081 255 255 255
13.660045623779297 -1.3836166858673096 -0.8632509708404541 255 255 255
13.535017013549805 -1.275177001953125 -0.7155030369758606 255 255 255
13.3269681930542 -1.2194238901138306 -0.8231785893440247 255 255 255
13.325794219970703 -1.1797380447387695 -0.8017854690551758 255 255 255
13.234407424926758 -1.1107221841812134 -0.7401229739189148 255 255 255
13.01003360748291 -1.1318646669387817 -0.6853366494178772 255 255 255
13.04617977142334 -1.0875319242477417 -0.7861640453338623 255 255 255
13.082072257995605 -0.9909428954124451 -0.7939615845680237 255 255 255
13.069107055664062 -0.9368743300437927 -0.7376178503036499 255 255 255
12.986213684082031 -0.8428019285202026 -0.803520143032074 255 255 255
13.058490753173828 -0.9201323986053467 -0.8234955668449402 255 255 255
12.966153144836426 -0.9400855898857117 -0.7040646076202393 255 255 255
12.978534698486328 -0.7145258784294128 -0.8236387968063354 255 255 255
13.13386058807373 -0.8166937232017517 -0.6999682784080505 255 255 255
13.004935264587402 -0.687889814376831 -0.7396512031555176 255 255 255
13.054877281188965 -0.7023575305938721 -0.7698755264282227 255 255 255
12.951170921325684 -0.5814818143844604 -0.7365975379943848 255 255 255
12.962653160095215 -0.5978599786758423 -0.7739071846008301 255 255 255
13.052602767944336 -0.6073242425918579 -0.7431702613830566 255 255 255
12.965897560119629 -0.5140455365180969 -0.7140538096427917 255 255 255
12.97039794921875 -0.49659547209739685 -0.7472097277641296 255 255 255
12.942688941955566 -0.44457879662513733 -0.7306671738624573 255 255 255
12.969677925109863 -0.4780339002609253 -0.7764294147491455 255 255 255
12.932854652404785 -0.4381120204925537 -0.7305946946144104 255 255 255
13.113158226013184 -0.24432608485221863 -0.7303640842437744 255 255 255
12.992644309997559 -0.36916449666023254 -0.7622131705284119 255 255 255
13.03080940246582 -0.32068032026290894 -0.7673813104629517 255 255 255
13.121038436889648 -0.23555348813533783 -0.6485762596130371 255 255 255
13.021306991577148 -0.19920030236244202 -0.7419353723526001 255 255 255
13.157176971435547 -0.041388556361198425 -0.8600234985351562 255 255 255
13.091415405273438 -0.06529152393341064 -0.7084034085273743 255 255 255
13.231267929077148 -0.1481289565563202 -0.8479260802268982 255 255 255
13.136621475219727 0.01571759581565857 -0.8418278694152832 255 255 255
13.238321304321289 0.01862499490380287 -0.8408142924308777 255 255 255
13.239891052246094 -0.007620286662131548 -0.85091233253479 255 255 255
13.339101791381836 0.05124359577894211 -0.6879229545593262 255 255 255
13.256144523620605 0.1959816813468933 -0.7415481209754944 255 255 255
13.244253158569336 0.13638460636138916 -0.7093844413757324 255 255 255
13.19758129119873 0.14025084674358368 -0.8750208616256714 255 255 255
13.481082916259766 0.2646603286266327 -0.9402040839195251 255 255 255
8.98742961883545 0.31292834877967834 -0.46400976181030273 255 255 255
8.6023588180542 1.7253509759902954 -0.48621055483818054 255 255 255
13.777238845825195 4.160435199737549 -0.9671154618263245 255 255 255
13.520731925964355 4.107151031494141 -0.9267445206642151 255 255 255
13.497245788574219 4.189334869384766 -0.9336416721343994 255 255 255
13.65935230255127 4.218771457672119 -0.855876088142395 255 255 255
13.507312774658203 4.24232816696167 -0.9241881370544434 255 255 255
13.419716835021973 4.280545234680176 -0.9789586663246155 255 255 255
13.393908500671387 4.315816402435303 -0.8755604028701782 255 255 255
13.431717872619629 4.384538650512695 -0.9312195777893066 255 255 255
13.36847972869873 4.505822658538818 -0.8635849952697754 255 255 255
13.412567138671875 4.513718605041504 -0.9785186648368835 255 255 255
13.32494068145752 4.554903030395508 -0.9499316811561584 255 255 255
13.227139472961426 4.44221830368042 -0.8884045481681824 255 255 255
13.319011688232422 4.687706470489502 -0.8688312768936157 255 255 255
13.084484100341797 4.631832122802734 -0.855372965335846 255 255 255
13.151461601257324 4.729763507843018 -0.9710527658462524 255 255 255
13.098860740661621 4.741376876831055 -0.9019584655761719 255 255 255
12.925990104675293 4.766603946685791 -0.882071852684021 255 255 255
12.896027565002441 4.890930652618408 -1.0216434001922607 255 255 255
12.751039505004883 4.921119213104248 -0.8828803300857544 255 255 255
13.04770565032959 4.976014137268066 -0.8838661313056946 255 255 255
12.91268253326416 5.160367488861084 -1.011527180671692 255 255 255
9.258683204650879 3.6551806926727295 -0.49305856227874756 255 255 255
12.775129318237305 5.1706647872924805 -0.9678558707237244 255 255 255
9.180131912231445 3.6353225708007812 -0.6276194453239441 255 255 255
9.070012092590332 3.7116963863372803 -0.5807357430458069 255 255 255
12.63104248046875 5.109954833984375 -0.9424981474876404 255 255 255
12.63092041015625 5.230030536651611 -0.89857017993927 255 255 255
12.547981262207031 5.225313186645508 -0.7633987069129944 255 255 255
12.591033935546875 5.472774505615234 -0.9460268616676331 255 255 255
8.80832290649414 3.755423069000244 -0.5702908039093018 255 255 255
12.598690032958984 5.479452610015869 -0.9342467188835144 255 255 255
12.515572547912598 5.528132438659668 -0.8686948418617249 255 255 255
12.357447624206543 5.45916223526001 -0.8055979013442993 255 255 255
12.272734642028809 5.584887504577637 -0.886750340461731 255 255 255
12.342144966125488 5.550026893615723 -0.874346911907196 255 255 255
12.221704483032227 5.562993049621582 -0.9282686710357666 255 255 255
12.312780380249023 5.700035572052002 -0.8404329419136047 255 255 255
12.515673637390137 5.802606105804443 -0.8754875659942627 255 255 255
12.243749618530273 5.700028896331787 -0.9143240451812744 255 255 255
12.36279010772705 5.904181957244873 -0.9753113985061646 255 255 255
12.076404571533203 5.876637935638428 -0.8333099484443665 255 255 255
11.90888500213623 5.816214561462402 -0.8387652635574341 255 255 255
12.119583129882812 5.923445701599121 -0.8617979288101196 255 255 255
12.286450386047363 6.155892372131348 -0.942916750907898 255 255 255
12.010724067687988 6.1403326988220215 -0.8721781373023987 255 255 255
11.893330574035645 6.063158988952637 -0.9287559390068054 255 255 255
12.049005508422852 6.1434712409973145 -0.8969515562057495 255 255 255
11.889066696166992 6.242415904998779 -0.8920003771781921 255 255 255
11.860183715820312 6.163855075836182 -0.7981051802635193 255 255 255
11.912376403808594 6.375585556030273 -0.9116092324256897 255 255 255
11.870715141296387 6.315745830535889 -0.8283905386924744 255 255 255
10.381274223327637 5.499898433685303 -0.7302252650260925 255 255 255
10.303845405578613 5.537148475646973 -0.7112756371498108 255 255 255
10.371212005615234 5.595449447631836 -0.6944583058357239 255 255 255
10.267999649047852 5.616973400115967 -0.779309868812561 255 255 255
10.292695999145508 5.550244331359863 -0.7561379075050354 255 255 255
10.272806167602539 5.750337600708008 -0.8203443884849548 255 255 255
10.397269248962402 5.664717197418213 -0.8274694085121155 255 255 255
11.805588722229004 6.725244522094727 -0.9673684239387512 255 255 255
11.703350067138672 6.66728401184082 -0.865573525428772 255 255 255
11.627935409545898 6.663016319274902 -0.907808244228363 255 255 255
11.649055480957031 6.690476417541504 -0.8344508409500122 255 255 255
11.602300643920898 6.78938627243042 -0.8151996731758118 255 255 255
11.877140045166016 6.969136714935303 -1.0016024112701416 255 255 255
11.764883041381836 6.842899799346924 -0.9026660323143005 255 255 255
11.643259048461914 6.941218376159668 -0.8573811650276184 255 255 255
11.663911819458008 7.0428948402404785 -0.9828144907951355 255 255 255
3.544347047805786 2.437504529953003 -0.10550570487976074 255 255 255
3.592487096786499 2.3633179664611816 -0.20868809521198273 255 255 255
3.4054067134857178 2.4567251205444336 -0.14963805675506592 255 255 255
3.6303470134735107 2.4600393772125244 -0.11872648447751999 255 255 255
3.4621264934539795 2.435515880584717 -0.15578308701515198 255 255 255
3.542175531387329 2.4107515811920166 -0.10144036263227463 255 255 255
3.4898197650909424 2.4432530403137207 -0.10444409400224686 255 255 255
3.5224153995513916 2.476071357727051 -0.053540512919425964 255 255 255
3.538189649581909 2.3884918689727783 -0.22495901584625244 255 255 255
3.4923946857452393 2.4386560916900635 -0.10301841050386429 255 255 255
3.3809731006622314 2.441666841506958 -0.15806983411312103 255 255 255
3.452181816101074 2.511770725250244 -0.1982254832983017 255 255 255
3.358527660369873 2.3747825622558594 -0.15944969654083252 255 255 255
3.452904462814331 2.5652453899383545 -0.20237943530082703 255 255 255
3.395947217941284 2.4953970909118652 -0.12456014752388 255 255 255
3.4106667041778564 2.498342752456665 -0.1367788016796112 255 255 255
3.3565914630889893 2.5607845783233643 -0.07603282481431961 255 255 255
3.3089630603790283 2.5650250911712646 -0.16090437769889832 255 255 255
3.3415513038635254 2.5776278972625732 -0.22010941803455353 255 255 255
3.306676149368286 2.5691299438476562 -0.11242382973432541 255 255 255
3.424241304397583 2.4182991981506348 -0.06972254067659378 255 255 255
3.3648693561553955 2.4945621490478516 -0.13418099284172058 255 255 255
3.3987464904785156 2.3985862731933594 -0.16120022535324097 255 255 255
3.4098527431488037 2.562342643737793 -0.20578217506408691 255 255 255
3.2137110233306885 2.622547149658203 -0.16785617172718048 255 255 255
3.297316074371338 2.42887282371521 -0.13645337522029877 255 255 255
3.2552196979522705 2.6533894538879395 -0.09540975838899612 255 255 255
3.2375495433807373 2.5784528255462646 -0.11891461163759232 255 255 255
3.1548728942871094 2.5881619453430176 -0.09979146718978882 255 255 255
3.1898365020751953 2.6713974475860596 -0.15690475702285767 255 255 255
3.2674262523651123 2.6997997760772705 -0.16156218945980072 255 255 255
3.1912994384765625 2.6297647953033447 -0.060562606900930405 255 255 255
8.753046035766602 -7.193783760070801 -0.7409437298774719 255 255 255
8.853156089782715 -7.209078311920166 -0.7498701810836792 255 255 255
8.931727409362793 -7.211987018585205 -0.6584525108337402 255 255 255
8.985974311828613 -7.139379978179932 -0.7450298070907593 255 255 255
9.040950775146484 -7.29721736907959 -0.783909797668457 255 255 255
9.24010944366455 -7.3807549476623535 -0.7934037446975708 255 255 255
9.421664237976074 -7.420234203338623 -0.7463511824607849 255 255 255
9.40966510772705 -7.351883888244629 -0.799801766872406 255 255 255
9.509801864624023 -7.404682636260986 -0.7622430920600891 255 255 255
9.566872596740723 -7.428252220153809 -0.7501417398452759 255 255 255
10.343729019165039 -7.953327655792236 -0.9053890109062195 255 255 255
10.603147506713867 -8.074151992797852 -0.8313879370689392 255 255 255
10.413858413696289 -7.930074691772461 -0.8589708209037781 255 255 255
10.375824928283691 -7.76028299331665 -0.8732343912124634 255 255 255
10.396656036376953 -7.841594696044922 -0.8070169687271118 255 255 255
10.373767852783203 -7.670251846313477 -0.6762876510620117 255 255 255
10.384566307067871 -7.595059394836426 -0.8374435305595398 255 255 255
10.378543853759766 -7.556417942047119 -0.7956909537315369 255 255 255
10.308387756347656 -7.539249420166016 -0.7444666624069214 255 255 255
10.336935997009277 -7.579135894775391 -0.9234952926635742 255 255 255
10.316837310791016 -7.47134256362915 -0.7737705707550049 255 255 255
10.357684135437012 -7.5163397789001465 -0.8417521715164185 255 255 255
10.6670560836792 -7.499476432800293 -0.7616192698478699 255 255 255
10.635652542114258 -7.473513126373291 -0.8134893178939819 255 255 255
10.713149070739746 -7.635640621185303 -0.8653551936149597 255 255 255
10.75843620300293 -7.590488910675049 -0.8873375058174133 255 255 255
11.03637981414795 -7.632242679595947 -0.7592005729675293 255 255 255
21.903873443603516 -11.005922317504883 -1.7422757148742676 255 255 255
22.287729263305664 -10.981663703918457 -1.828056812286377 255 255 255
22.15322494506836 -10.901083946228027 -1.8355247974395752 255 255 255
22.11441421508789 -10.771003723144531 -1.7569739818572998 255 255 255
22.23557472229004 -10.70289134979248 -1.74259352684021 255 255 255
22.260967254638672 -10.748838424682617 -1.8338600397109985 255 255 255
22.161827087402344 -10.610917091369629 -1.7062361240386963 255 255 255
22.191326141357422 -10.549095153808594 -1.7619823217391968 255 255 255
22.114917755126953 -10.444249153137207 -1.8027002811431885 255 255 255
22.144588470458984 -10.341835975646973 -1.7345962524414062 255 255 255
22.148279190063477 -10.330329895019531 -1.838960886001587 255 255 255
22.182289123535156 -10.227088928222656 -1.7681735754013062 255 255 255
22.233421325683594 -10.137578964233398 -1.824862003326416 255 255 255
22.242475509643555 -10.083449363708496 -1.7445716857910156 255 255 255
22.32093620300293 -10.112386703491211 -1.742852807044983 255 255 255
18.999662399291992 -8.482385635375977 -1.4720622301101685 255 255 255
18.94247817993164 -8.313425064086914 -1.450638771057129 255 255 255
19.21466064453125 -8.364374160766602 -1.4061541557312012 255 255 255
19.039329528808594 -8.284769058227539 -1.5081942081451416 255 255 255
18.98348045349121 -8.17786693572998 -1.4382413625717163 255 255 255
19.023157119750977 -8.122993469238281 -1.4430716037750244 255 255 255
19.094606399536133 -8.024530410766602 -1.4175539016723633 255 255 255
19.102313995361328 -7.9407219886779785 -1.4058250188827515 255 255 255
19.090129852294922 -7.881170749664307 -1.3911230564117432 255 255 255
19.100200653076172 -7.912230014801025 -1.4225959777832031 255 255 255
19.152149200439453 -7.903209686279297 -1.4819738864898682 255 255 255
19.195945739746094 -7.715299606323242 -1.5528473854064941 255 255 255
19.140336990356445 -7.7488861083984375 -1.5442509651184082 255 255 255
19.162281036376953 -7.686915874481201 -1.4584828615188599 255 255 255
19.234664916992188 -7.660180568695068 -1.4935336112976074 255 255 255
19.2838191986084 -7.603638172149658 -1.3469339609146118 255 255 255
19.26761245727539 -7.48114013671875 -1.4696274995803833 255 255 255
19.45953369140625 -7.566468238830566 -1.5045716762542725 255 255 255
19.545135498046875 -7.4148640632629395 -1.4070791006088257 255 255 255
19.503477096557617 -7.323097229003906 -1.4450042247772217 255 255 255
19.43951988220215 -7.317800045013428 -1.4290516376495361 255 255 255
19.396984100341797 -7.2061333656311035 -1.5051655769348145 255 255 255
19.41179084777832 -7.09544038772583 -1.4429903030395508 255 255 255
19.845230102539062 -7.242259502410889 -1.5029628276824951 255 255 255
22.405803680419922 -8.092902183532715 -1.8090002536773682 255 255 255
22.209651947021484 -8.002866744995117 -1.606360673904419 255 255 255
22.27882957458496 -7.855116844177246 -1.7235171794891357 255 255 255
22.197086334228516 -7.7747344970703125 -1.7126539945602417 255 255 255
22.260286331176758 -7.689892292022705 -1.6756426095962524 255 255 255
22.196117401123047 -7.612065315246582 -1.7044599056243896 255 255 255
22.100051879882812 -7.480677604675293 -1.651153326034546 255 255 255
22.053306579589844 -7.508035659790039 -1.5848795175552368 255 255 255
22.035140991210938 -7.390560150146484 -1.6389744281768799 255 255 255
21.95518684387207 -7.286544322967529 -1.6440781354904175 255 255 255
22.057905197143555 -7.231312274932861 -1.638732671737671 255 255 255
21.90300941467285 -7.128561496734619 -1.5590101480484009 255 255 255
21.862659454345703 -7.1324567794799805 -1.5737061500549316 255 255 255
21.99480628967285 -6.996596336364746 -1.6755784749984741 255 255 255
21.938623428344727 -6.8944549560546875 -1.6589199304580688 255 255 255
21.85862922668457 -6.871217727661133 -1.6654627323150635 255 255 255
21.855098724365234 -6.772029399871826 -1.6784796714782715 255 255 255
21.787742614746094 -6.703833103179932 -1.6401793956756592 255 255 255
21.800369262695312 -6.537228584289551 -1.6158515214920044 255 255 255
21.88250160217285 -6.431156158447266 -1.5909435749053955 255 255 255
21.73885154724121 -6.364639759063721 -1.5723637342453003 255 255 255
21.714351654052734 -6.302652359008789 -1.5865591764450073 255 255 255
21.705347061157227 -6.299357891082764 -1.6587893962860107 255 255 255
21.661928176879883 -6.2103962898254395 -1.5384362936019897 255 255 255
21.646968841552734 -6.15873384475708 -1.5645369291305542 255 255 255
