ply
format ascii 1.0
element vertex 690
property float x
property float y
property float z
property uchar red
property uchar green
property uchar blue
end_header
7.895265102386475 0.15651199221611023 -0.7357519268989563 255 255 255
3.735551357269287 2.274630069732666 -0.12469679862260818 255 255 255
22.5911922454834 -4.15006685256958 -1.4088952541351318 255 255 255
9.337176322937012 -0.27621540427207947 -1.011711835861206 255 255 255
11.034634590148926 -2.0900275707244873 -1.5948262214660645 255 255 255
23.412534713745117 -0.8264012336730957 -0.6987689137458801 255 255 255
18.779481887817383 -9.00908088684082 -1.219058632850647 255 255 255
10.00448226928711 2.7578253746032715 -0.9477152824401855 255 255 255
3.8342294692993164 1.8061974048614502 -0.8215331435203552 255 255 255
6.985236644744873 -0.4270898401737213 -1.7103673219680786 255 255 255
12.538570404052734 -0.816444993019104 -1.630881667137146 255 255 255
15.46120834350586 2.2531259059906006 0.2021012306213379 255 255 255
14.389787673950195 -6.525195598602295 -1.7953873872756958 255 255 255
13.033625602722168 3.6067886352539062 0.45231300592422485 255 255 255
6.465488433837891 0.3787262737751007 -1.7211346626281738 255 255 255
4.4461164474487305 1.8014847040176392 -0.6023821234703064 255 255 255
13.067206382751465 3.6627414226531982 0.22339938580989838 255 255 255
17.060287475585938 9.16325855255127 -0.15552330017089844 255 255 255
18.764394760131836 4.622313022613525 0.21551251411437988 255 255 255
9.084521293640137 -0.31356561183929443 -0.9230616688728333 255 255 255
19.001426696777344 -7.541354656219482 -1.6495075225830078 255 255 255
9.641128540039062 3.315885543823242 0.335560142993927 255 255 255
7.330511569976807 0.5666688084602356 -1.447969913482666 255 255 255
21.782054901123047 -0.1161346584558487 -0.19207437336444855 255 255 255
4.501160621643066 1.5696792602539062 -1.031791090965271 255 255 255
11.7772216796875 -2.608736753463745 -1.6829991340637207 255 255 255
14.996009826660156 -5.022506237030029 -1.6728605031967163 255 255 255
12.850561141967773 -1.6160374879837036 -0.8182088732719421 255 255 255
12.894586563110352 -1.676417589187622 -0.9761292338371277 255 255 255
12.950183868408203 -1.363190770149231 -1.009080171585083 255 255 255
26.207569122314453 -6.617146015167236 -1.4312611818313599 255 255 255
7.652806282043457 -2.188678026199341 -1.610141396522522 255 255 255
7.91222620010376 -0.6280452609062195 -1.6587858200073242 255 255 255
9.298934936523438 -3.8406126499176025 -1.6662263870239258 255 255 255
6.423527717590332 4.446806907653809 0.26105764508247375 255 255 255
6.424617767333984 -2.310959815979004 -1.7353731393814087 255 255 255
19.233896255493164 4.215660572052002 0.7945300340652466 255 255 255
12.713138580322266 -2.8512589931488037 -1.6641509532928467 255 255 255
8.414191246032715 0.3906777799129486 -0.47990307211875916 255 255 255
9.657798767089844 3.5540812015533447 0.46881914138793945 255 255 255
7.111940860748291 0.5231413841247559 -0.7281317710876465 255 255 255
4.573659896850586 1.5544137954711914 -0.8124082088470459 255 255 255
8.23949146270752 0.6124919652938843 -0.17932897806167603 255 255 255
10.916450500488281 5.301468849182129 0.6300857067108154 255 255 255
10.185473442077637 -4.154727935791016 -1.6615886688232422 255 255 255
22.81001853942871 -12.631904602050781 -1.7091056108474731 255 255 255
22.842453002929688 -12.654227256774902 -0.28300586342811584 255 255 255
6.476119518280029 4.566971778869629 0.31680017709732056 255 255 255
6.655244827270508 -1.4235224723815918 -1.7805893421173096 255 255 255
4.967731952667236 -3.507425546646118 -1.2247686386108398 255 255 255
10.312431335449219 4.871306419372559 0.11373830586671829 255 255 255
39.72542953491211 -19.106929779052734 -0.4083552360534668 255 255 255
4.525717258453369 1.5355714559555054 -0.8173660635948181 255 255 255
12.027023315429688 -6.058061122894287 -1.6671903133392334 255 255 255
9.362308502197266 3.12691068649292 -0.3850179612636566 255 255 255
11.03124713897705 -1.3639148473739624 -1.625820279121399 255 255 255
67.38874053955078 -14.94662094116211 1.7526887655258179 255 255 255
10.875741958618164 -0.7747910022735596 -1.6522265672683716 255 255 255
17.98099136352539 2.605053186416626 -0.21100586652755737 255 255 255
9.597932815551758 4.054195404052734 0.37336042523384094 255 255 255
3.6560606956481934 1.9448797702789307 -0.7505344748497009 255 255 255
8.044496536254883 -1.5824205875396729 -1.7392077445983887 255 255 255
10.509214401245117 4.7870612144470215 -0.448224276304245 255 255 255
8.736329078674316 0.4241413176059723 -0.07130987197160721 255 255 255
10.52730941772461 2.554262161254883 -0.8268896341323853 255 255 255
16.701358795166016 -6.026620388031006 -1.7176873683929443 255 255 255
32.61577606201172 -16.574649810791016 0.2801646888256073 255 255 255
4.763035297393799 -4.180190563201904 -1.2554861307144165 255 255 255
13.34709358215332 -3.708214044570923 -1.6820552349090576 255 255 255
26.68122673034668 -8.991889953613281 -1.4596344232559204 255 255 255
27.526836395263672 -4.0953474044799805 -0.3792891204357147 255 255 255
14.13203239440918 -0.7647035121917725 -1.3404279947280884 255 255 255
9.551765441894531 -8.043854713439941 -0.4260769486427307 255 255 255
4.906538009643555 -3.7513866424560547 -0.854892909526825 255 255 255
13.051239013671875 6.957447052001953 -0.6578364968299866 255 255 255
18.888689041137695 -9.296538352966309 -0.6087086200714111 255 255 255
4.974579811096191 1.4025579690933228 -1.0560274124145508 255 255 255
6.5674004554748535 -0.6914308071136475 -1.646923303604126 255 255 255
8.505291938781738 -0.8718641996383667 -1.6570439338684082 255 255 255
21.47984504699707 -0.8550584316253662 0.6877075433731079 255 255 255
9.89452838897705 -8.000167846679688 -0.134318545460701 255 255 255
4.268002986907959 1.6621679067611694 -1.1248646974563599 255 255 255
12.570173263549805 -8.767045974731445 0.10192927718162537 255 255 255
7.421250820159912 0.6081876754760742 -1.667838215827942 255 255 255
9.084548950195312 3.26986026763916 -0.7870168089866638 255 255 255
21.229915618896484 -0.40896469354629517 0.1477358341217041 255 255 255
3.941620349884033 1.7823151350021362 -0.9331665635108948 255 255 255
7.692558765411377 -3.828963279724121 -1.4934741258621216 255 255 255
6.909647464752197 1.7593162059783936 -0.7245221734046936 255 255 255
3.926401138305664 1.9885904788970947 -0.19684544205665588 255 255 255
10.257596969604492 -1.453220248222351 -1.61688232421875 255 255 255
6.4593281745910645 0.7365643978118896 -1.0760153532028198 255 255 255
6.7651519775390625 -3.278294324874878 -1.7326618432998657 255 255 255
13.373472213745117 -0.7573182582855225 -0.35642555356025696 255 255 255
9.465035438537598 0.7139199376106262 -0.4246552288532257 255 255 255
8.445481300354004 0.6145449280738831 -0.5644866824150085 255 255 255
6.713443279266357 0.6619420051574707 -0.9153034090995789 255 255 255
9.219453811645508 3.531630277633667 0.45323240756988525 255 255 255
7.613527774810791 -0.07494723051786423 -1.6030608415603638 255 255 255
19.775066375732422 -5.212725639343262 -1.490704894065857 255 255 255
41.65188217163086 -16.96750831604004 -1.4913192987442017 255 255 255
34.9820556640625 -4.0988922119140625 1.0248031616210938 255 255 255
6.428659915924072 1.6062301397323608 -1.5228755474090576 255 255 255
16.080224990844727 6.8236565589904785 -0.48193860054016113 255 255 255
19.180259704589844 -11.776451110839844 0.12284631282091141 255 255 255
28.756759643554688 -8.085083961486816 -1.4646892547607422 255 255 255
12.27690601348877 -1.26900315284729 -1.5269423723220825 255 255 255
8.47782039642334 -0.7153213024139404 -1.5243535041809082 255 255 255
8.319908142089844 0.1126757487654686 -0.469790518283844 255 255 255
7.311925411224365 1.0233044624328613 -0.5404160022735596 255 255 255
15.638782501220703 -2.508819580078125 -1.607387661933899 255 255 255
3.5621800422668457 1.9967387914657593 -0.3174888789653778 255 255 255
10.070185661315918 -8.23381233215332 0.16905786097049713 255 255 255
15.356402397155762 2.9305286407470703 0.8089699149131775 255 255 255
13.146330833435059 4.271967887878418 -0.8775089383125305 255 255 255
7.54366397857666 -2.1998109817504883 -1.709044098854065 255 255 255
17.147706985473633 -10.671802520751953 -1.0966311693191528 255 255 255
5.230269432067871 -3.2083752155303955 -0.8345153331756592 255 255 255
13.647388458251953 -1.361066222190857 -0.0931750237941742 255 255 255
8.210408210754395 -2.267656087875366 -1.8250699043273926 255 255 255
4.990689277648926 -3.3995230197906494 -1.280364751815796 255 255 255
12.38819694519043 -8.862642288208008 -0.824010968208313 255 255 255
6.5057148933410645 -1.881070852279663 -1.6902036666870117 255 255 255
16.707763671875 8.244203567504883 0.0174911729991436 255 255 255
12.917049407958984 -1.3239059448242188 -1.1505306959152222 255 255 255
6.74933385848999 -0.22735658288002014 -1.6565555334091187 255 255 255
69.64747619628906 -16.085853576660156 2.0788464546203613 255 255 255
6.5261125564575195 0.7448074221611023 -0.9085034132003784 255 255 255
54.22471237182617 -12.100934028625488 0.8091620206832886 255 255 255
13.2673978805542 -1.8589016199111938 -0.8588233590126038 255 255 255
15.76394271850586 -3.285252809524536 -1.5595508813858032 255 255 255
8.304741859436035 -1.6369130611419678 -1.7675411701202393 255 255 255
23.123876571655273 -12.865565299987793 -0.8804706335067749 255 255 255
18.539905548095703 -3.9303231239318848 -1.5141425132751465 255 255 255
19.39771270751953 -0.8381527066230774 -0.42446285486221313 255 255 255
5.090343475341797 1.549329400062561 -0.7305964827537537 255 255 255
18.440868377685547 4.705706596374512 0.882499098777771 255 255 255
9.347939491271973 3.1531076431274414 0.5184540748596191 255 255 255
20.86393165588379 -5.421124458312988 -1.5501618385314941 255 255 255
11.801527976989746 -8.360607147216797 0.7594132423400879 255 255 255
17.210615158081055 5.179624557495117 -0.5013387799263 255 255 255
10.042469024658203 3.217939615249634 0.17549940943717957 255 255 255
9.075607299804688 -2.7520642280578613 -1.6455503702163696 255 255 255
9.14875316619873 0.0641162246465683 -0.061028845608234406 255 255 255
7.555927753448486 -0.8009070754051208 -1.618206262588501 255 255 255
7.805654048919678 -2.9972567558288574 -1.757729172706604 255 255 255
9.306403160095215 2.9565889835357666 -0.9637168049812317 255 255 255
13.825173377990723 -6.259166240692139 -1.838024616241455 255 255 255
17.694067001342773 4.944673538208008 0.020798593759536743 255 255 255
12.877331733703613 7.076087951660156 -0.6848084330558777 255 255 255
23.898719787597656 -5.354516983032227 -1.3828612565994263 255 255 255
18.901586532592773 -8.574563026428223 -0.8322011232376099 255 255 255
4.968116283416748 -3.8941702842712402 -1.1476457118988037 255 255 255
37.94038391113281 -3.8080554008483887 0.5435817837715149 255 255 255
8.73851203918457 -7.489465236663818 -1.2714660167694092 255 255 255
9.151103973388672 3.125457525253296 -1.2347431182861328 255 255 255
15.093100547790527 8.194214820861816 -0.4159742593765259 255 255 255
11.628313064575195 -0.42369627952575684 -1.6653486490249634 255 255 255
13.382035255432129 -8.00350284576416 0.5982644557952881 255 255 255
10.904092788696289 -1.0986485481262207 -1.651533603668213 255 255 255
6.592957973480225 4.4405107498168945 0.3708500564098358 255 255 255
7.894224166870117 -3.7022411823272705 -1.7366665601730347 255 255 255
14.45480728149414 -1.7948638200759888 -0.12344352155923843 255 255 255
6.38106632232666 1.4707579612731934 -1.637614130973816 255 255 255
9.293024063110352 2.9603371620178223 -0.9837533235549927 255 255 255
11.229546546936035 -8.472612380981445 0.5548209547996521 255 255 255
6.357328414916992 -0.8287656307220459 -1.5482847690582275 255 255 255
16.932479858398438 8.712971687316895 0.5542925596237183 255 255 255
18.001325607299805 1.0258015394210815 -0.2585471272468567 255 255 255
6.482848644256592 0.8190001845359802 -1.6090331077575684 255 255 255
13.177355766296387 -9.365153312683105 -0.8267037868499756 255 255 255
9.499369621276855 -8.066282272338867 -0.5923750400543213 255 255 255
8.0027437210083 5.833756446838379 -0.09865161031484604 255 255 255
21.47804069519043 -1.4739575386047363 0.7219460010528564 255 255 255
4.837154388427734 -3.9441514015197754 -1.375286340713501 255 255 255
10.377864837646484 -8.118856430053711 -0.20647332072257996 255 255 255
7.139543533325195 1.4281213283538818 -1.6132643222808838 255 255 255
7.068820476531982 1.0851885080337524 -1.5548287630081177 255 255 255
7.409031867980957 -0.21394002437591553 -1.60354745388031 255 255 255
6.132763862609863 0.7417361736297607 -1.5241981744766235 255 255 255
7.353339672088623 1.3547331094741821 -1.673195719718933 255 255 255
15.92599868774414 -6.405491828918457 -1.6935118436813354 255 255 255
6.481443881988525 1.245560884475708 -0.916330099105835 255 255 255
15.0761079788208 -9.912867546081543 -0.4087929427623749 255 255 255
36.3670539855957 -7.271604061126709 -0.7802475094795227 255 255 255
7.337351322174072 -3.677173376083374 -1.8687273263931274 255 255 255
21.75801658630371 -12.05514907836914 0.36857667565345764 255 255 255
21.391315460205078 -1.2339997291564941 0.4921870529651642 255 255 255
20.6282958984375 -0.08501703292131424 0.8109531402587891 255 255 255
18.64111328125 -11.124486923217773 -1.154783844947815 255 255 255
18.744108200073242 4.553560256958008 0.06413614749908447 255 255 255
9.780915260314941 -2.9102964401245117 -1.6876164674758911 255 255 255
38.868377685546875 -19.74871826171875 1.648353934288025 255 255 255
11.663349151611328 4.844427585601807 -1.0154961347579956 255 255 255
22.38332176208496 -2.0364415645599365 0.9877740740776062 255 255 255
17.517175674438477 -8.838414192199707 -1.7628382444381714 255 255 255
6.44651985168457 1.5248692035675049 -1.085950255393982 255 255 255
12.692277908325195 -2.6129274368286133 -1.643132209777832 255 255 255
14.034252166748047 5.9233198165893555 -0.5662407279014587 255 255 255
21.8942928314209 -12.735041618347168 -0.1056390106678009 255 255 255
7.683305263519287 -3.392099618911743 -1.7481656074523926 255 255 255
10.398064613342285 -8.241791725158691 -0.2045903503894806 255 255 255
8.072667121887207 0.11356182396411896 -1.0323866605758667 255 255 255
6.6174750328063965 0.9438876509666443 -0.9165380001068115 255 255 255
19.783489227294922 -5.382746696472168 -1.5557117462158203 255 255 255
23.347854614257812 -12.281436920166016 -1.708104133605957 255 255 255
4.931489944458008 -4.123251438140869 -1.0243011713027954 255 255 255
29.816980361938477 -11.932615280151367 -1.6766351461410522 255 255 255
20.091064453125 -10.577780723571777 -1.7068042755126953 255 255 255
6.985952377319336 4.10648250579834 0.1415669471025467 255 255 255
13.075727462768555 -1.0221202373504639 -0.61763995885849 255 255 255
12.781975746154785 -3.5339157581329346 -1.6338533163070679 255 255 255
6.453735828399658 1.4361129999160767 -0.8995934128761292 255 255 255
14.217679023742676 -1.0773921012878418 -1.5335144996643066 255 255 255
21.918989181518555 -12.013891220092773 -0.015152720734477043 255 255 255
10.363139152526855 3.395634889602661 -0.2098478376865387 255 255 255
7.31558084487915 -3.9076638221740723 -1.8214401006698608 255 255 255
21.674001693725586 -1.3647037744522095 0.7073788642883301 255 255 255
14.725046157836914 -1.15572988986969 -0.5137214660644531 255 255 255
10.385503768920898 4.935723781585693 -0.1690489500761032 255 255 255
9.717680931091309 -3.4354851245880127 -1.7104328870773315 255 255 255
29.17405128479004 -15.228796005249023 -0.5125179290771484 255 255 255
11.407214164733887 -8.29921817779541 0.5329561829566956 255 255 255
17.68470573425293 3.0785024166107178 0.4829830527305603 255 255 255
25.471420288085938 -5.591519832611084 -1.4139877557754517 255 255 255
6.646595001220703 4.466760635375977 -0.12621629238128662 255 255 255
39.66633987426758 -13.844528198242188 -1.4649136066436768 255 255 255
11.935330390930176 -8.448596000671387 0.6507236361503601 255 255 255
3.337756872177124 2.2717363834381104 -0.18137472867965698 255 255 255
44.85329818725586 -14.021201133728027 -1.322374939918518 255 255 255
18.304651260375977 2.5685386657714844 0.8933933973312378 255 255 255
3.8632333278656006 1.7809315919876099 -0.30347657203674316 255 255 255
11.629316329956055 -8.26431655883789 0.4226427376270294 255 255 255
7.26646614074707 -2.6850392818450928 -1.7550363540649414 255 255 255
5.61887788772583 -3.1633856296539307 -1.5000073909759521 255 255 255
6.798654079437256 0.8942430019378662 -0.7299830913543701 255 255 255
22.009092330932617 -11.565267562866211 0.9223374724388123 255 255 255
40.34872055053711 -8.63095474243164 0.1700565069913864 255 255 255
5.082311630249023 1.413805365562439 -1.1589996814727783 255 255 255
4.653611183166504 1.541591763496399 -0.8760453462600708 255 255 255
3.1648857593536377 2.177962064743042 -0.6833510398864746 255 255 255
8.472854614257812 -0.08117134124040604 -0.9932482838630676 255 255 255
6.884061336517334 0.6775417923927307 -0.7234679460525513 255 255 255
11.66269588470459 -0.6202031970024109 -1.5936577320098877 255 255 255
18.799640655517578 -10.394821166992188 -1.7810313701629639 255 255 255
9.088324546813965 -7.952940940856934 -0.45362719893455505 255 255 255
4.330873489379883 1.6571036577224731 -0.8856862187385559 255 255 255
13.2712984085083 -1.9572112560272217 -0.641853928565979 255 255 255
3.7178986072540283 1.9004188776016235 -0.9033162593841553 255 255 255
7.652422904968262 0.33691003918647766 -0.8361361622810364 255 255 255
53.9842643737793 -9.298391342163086 1.4368481636047363 255 255 255
8.82220458984375 3.2755560874938965 -0.951246976852417 255 255 255
18.18404769897461 4.740522384643555 0.37319761514663696 255 255 255
4.970330715179443 -3.578793525695801 -1.316902995109558 255 255 255
29.297327041625977 -15.38304328918457 -0.2220875471830368 255 255 255
6.885471820831299 4.131373405456543 0.23488792777061462 255 255 255
5.220635890960693 1.4343045949935913 -1.2128983736038208 255 255 255
6.800199508666992 1.079192042350769 -1.5889301300048828 255 255 255
8.47241497039795 -2.934638023376465 -1.706183910369873 255 255 255
4.463259696960449 2.873915672302246 -0.7336128354072571 255 255 255
10.192693710327148 -8.19175910949707 -0.7960782051086426 255 255 255
20.502408981323242 3.9612948894500732 -0.6500715017318726 255 255 255
26.81133270263672 -14.432146072387695 -0.40861091017723083 255 255 255
9.16344928741455 -7.918102741241455 -0.5252959728240967 255 255 255
13.335419654846191 -0.49469247460365295 -0.525969386100769 255 255 255
9.714149475097656 -2.559811592102051 -1.6549137830734253 255 255 255
12.22785758972168 -0.8586257100105286 -1.5376414060592651 255 255 255
7.300236225128174 0.18056620657444 -1.6512428522109985 255 255 255
17.677352905273438 1.3658794164657593 -0.28740742802619934 255 255 255
11.612072944641113 -5.3163347244262695 -1.7168281078338623 255 255 255
4.007994651794434 1.6045291423797607 -0.9904404282569885 255 255 255
13.836627006530762 -5.993864059448242 -1.6564499139785767 255 255 255
9.880805015563965 4.685861587524414 0.37448543310165405 255 255 255
9.790313720703125 2.9661643505096436 -0.7688347101211548 255 255 255
9.843245506286621 2.7689640522003174 -0.8988150358200073 255 255 255
13.112451553344727 4.3572797775268555 -0.8001332879066467 255 255 255
21.788530349731445 -11.816926956176758 0.45684802532196045 255 255 255
8.232732772827148 -7.39558219909668 -1.2282991409301758 255 255 255
20.98392677307129 -5.7042412757873535 -1.4913254976272583 255 255 255
9.538125991821289 -0.2153710573911667 -1.3069270849227905 255 255 255
6.8216938972473145 4.218750953674316 0.2998974323272705 255 255 255
16.685850143432617 -4.992035388946533 -1.6314064264297485 255 255 255
6.789089679718018 0.8403085470199585 -0.6770613193511963 255 255 255
9.319640159606934 3.0944736003875732 -1.103979229927063 255 255 255
6.603133678436279 4.228321075439453 0.1432182788848877 255 255 255
6.8817009925842285 4.0822248458862305 0.06997570395469666 255 255 255
8.119757652282715 0.0662778988480568 -0.7578450441360474 255 255 255
18.545774459838867 0.7412909269332886 -0.05609110742807388 255 255 255
13.593226432800293 3.9645400047302246 -0.3203401267528534 255 255 255
11.364253044128418 4.1350250244140625 -0.9672112464904785 255 255 255
16.636343002319336 8.43468189239502 0.0934329628944397 255 255 255
5.152083873748779 -3.1738102436065674 -1.2632861137390137 255 255 255
14.588794708251953 3.544295310974121 -0.938991129398346 255 255 255
7.918595790863037 -2.352478504180908 -1.656957983970642 255 255 255
10.250163078308105 -4.237353324890137 -1.7717199325561523 255 255 255
6.468425750732422 1.060508370399475 -1.5716404914855957 255 255 255
12.543844223022461 -5.919869899749756 -1.7570520639419556 255 255 255
8.834906578063965 -3.9827473163604736 -1.8352839946746826 255 255 255
28.321794509887695 -7.389819622039795 -1.5257744789123535 255 255 255
4.999818325042725 1.4723625183105469 -1.1210514307022095 255 255 255
8.42540454864502 -2.7981245517730713 -1.6194716691970825 255 255 255
13.005680084228516 -1.155348300933838 -1.0541694164276123 255 255 255
6.485504150390625 1.6496732234954834 -1.1809626817703247 255 255 255
10.177921295166016 -8.23983097076416 -0.5768739581108093 255 255 255
6.308262825012207 1.0714221000671387 -1.619749665260315 255 255 255
31.259546279907227 -8.327848434448242 -1.43924081325531 255 255 255
12.930014610290527 -1.3376725912094116 -0.8007745742797852 255 255 255
13.030067443847656 -8.82526683807373 0.6963610053062439 255 255 255
9.774185180664062 -4.108705520629883 -1.7260472774505615 255 255 255
27.593244552612305 -3.226910352706909 -0.20069357752799988 255 255 255
7.421372890472412 -3.189082622528076 -1.7287930250167847 255 255 255
14.351622581481934 -2.3406388759613037 -1.0862064361572266 255 255 255
3.7523791790008545 1.9351147413253784 -0.9077257513999939 255 255 255
3.96999192237854 1.7735198736190796 -0.9322726726531982 255 255 255
13.010087013244629 3.68440842628479 0.06181790307164192 255 255 255
6.5076704025268555 0.9180917143821716 -0.9314596652984619 255 255 255
17.859771728515625 1.2141425609588623 0.5109517574310303 255 255 255
10.233728408813477 4.621860504150391 0.020427770912647247 255 255 255
6.567481994628906 0.7959087491035461 -0.8238608241081238 255 255 255
6.405281066894531 0.7904084920883179 -1.1150907278060913 255 255 255
4.355128288269043 1.6960359811782837 -0.86168372631073 255 255 255
7.264258861541748 -2.9318017959594727 -1.7832798957824707 255 255 255
18.66740608215332 0.3188840448856354 0.2384893298149109 255 255 255
6.584684371948242 1.4956196546554565 -1.0582592487335205 255 255 255
8.342721939086914 -1.2354865074157715 -1.720108151435852 255 255 255
11.387320518493652 -8.332967758178711 0.6559522747993469 255 255 255
6.510097026824951 0.9984551072120667 -1.6183068752288818 255 255 255
17.395803451538086 3.749444007873535 -0.7565765976905823 255 255 255
10.184126853942871 -8.742451667785645 0.33497458696365356 255 255 255
10.30200481414795 -9.0288724899292 0.49831342697143555 255 255 255
9.031136512756348 -3.196129083633423 -1.7684427499771118 255 255 255
22.068767547607422 -0.46506136655807495 0.8593288064002991 255 255 255
52.80058288574219 -21.87674331665039 -0.9477598667144775 255 255 255
38.96713638305664 -11.250593185424805 -0.6413967609405518 255 255 255
7.800363063812256 0.31257113814353943 -1.3542017936706543 255 255 255
24.222660064697266 -8.008438110351562 -1.5241405963897705 255 255 255
12.928606033325195 -1.2260034084320068 -0.6381211280822754 255 255 255
10.718884468078613 -8.63652229309082 0.6407430171966553 255 255 255
13.059869766235352 3.6146609783172607 0.4198797941207886 255 255 255
3.9139280319213867 1.8337353467941284 -0.7864958047866821 255 255 255
6.376877784729004 4.569257736206055 0.11722085624933243 255 255 255
15.31474781036377 -2.704958200454712 -1.2004882097244263 255 255 255
9.54660701751709 -1.7335197925567627 -1.60298490524292 255 255 255
23.56291389465332 -1.9417123794555664 0.48859620094299316 255 255 255
7.869869232177734 0.16667817533016205 -1.6066324710845947 255 255 255
8.218814849853516 -0.044095881283283234 -0.8319596648216248 255 255 255
29.322067260742188 -6.510317325592041 -1.2642061710357666 255 255 255
9.403785705566406 2.9505422115325928 -0.9212031364440918 255 255 255
4.884033679962158 1.577355146408081 -1.2628991603851318 255 255 255
10.685150146484375 -4.682278156280518 -1.7250280380249023 255 255 255
19.0596981048584 0.5629788637161255 0.6233767867088318 255 255 255
9.927556991577148 -8.750513076782227 -0.4335743188858032 255 255 255
6.44899845123291 0.2916017472743988 -1.6711771488189697 255 255 255
8.290457725524902 -3.5830931663513184 -1.7424904108047485 255 255 255
19.53354835510254 4.250416278839111 0.2217252254486084 255 255 255
18.824514389038086 4.5789265632629395 -0.4852953851222992 255 255 255
14.67294692993164 7.831295490264893 -0.2867775559425354 255 255 255
8.283601760864258 -1.7894315719604492 -1.716995358467102 255 255 255
13.996301651000977 3.4775030612945557 -0.9771652221679688 255 255 255
6.824713706970215 4.30182409286499 0.3476751446723938 255 255 255
4.767588138580322 1.5267024040222168 -1.1318670511245728 255 255 255
16.7583065032959 8.400460243225098 0.2748100161552429 255 255 255
4.838307857513428 -4.157678127288818 -0.9874144196510315 255 255 255
11.653428077697754 -8.27676773071289 0.39341166615486145 255 255 255
11.571953773498535 -8.730098724365234 0.5572782158851624 255 255 255
8.54049301147461 -1.4470559358596802 -1.6511677503585815 255 255 255
8.729413032531738 0.21751010417938232 -0.15485206246376038 255 255 255
14.029576301574707 -1.3528727293014526 -0.050077877938747406 255 255 255
31.010089874267578 -5.297730445861816 -0.7997274994850159 255 255 255
7.155005931854248 -1.0830330848693848 -1.6400738954544067 255 255 255
13.004388809204102 -1.3647009134292603 -0.6263368129730225 255 255 255
40.423404693603516 -15.197320938110352 -1.4765769243240356 255 255 255
18.097530364990234 0.03726540133357048 0.8680406212806702 255 255 255
7.953062057495117 -0.12307241559028625 -1.6190741062164307 255 255 255
6.654935359954834 4.102893829345703 0.12046433240175247 255 255 255
31.960153579711914 -7.244929790496826 -0.589089572429657 255 255 255
17.757963180541992 1.3613241910934448 0.7127228379249573 255 255 255
12.424948692321777 5.1235246658325195 -0.9177959561347961 255 255 255
3.2896244525909424 2.0059573650360107 -0.8561455607414246 255 255 255
3.3822994232177734 2.3337342739105225 -0.10817264765501022 255 255 255
7.0835065841674805 3.907196044921875 -0.00953079853206873 255 255 255
9.07080364227295 -7.711581230163574 -1.2565546035766602 255 255 255
25.453628540039062 -13.759602546691895 -0.5595468282699585 255 255 255
14.025552749633789 -10.06005859375 -0.2998144328594208 255 255 255
10.177236557006836 -8.242682456970215 -0.7601070404052734 255 255 255
12.275472640991211 -1.4249348640441895 -1.525061011314392 255 255 255
6.507014274597168 1.1955394744873047 -1.5134308338165283 255 255 255
22.376638412475586 -11.472322463989258 0.8084552884101868 255 255 255
10.280014991760254 -4.103786945343018 -1.6471775770187378 255 255 255
6.268920421600342 -1.130476951599121 -1.701164960861206 255 255 255
44.460872650146484 -8.863187789916992 0.342505544424057 255 255 255
58.190696716308594 -11.609475135803223 1.0353997945785522 255 255 255
20.1777400970459 4.091553688049316 -0.37603992223739624 255 255 255
14.954723358154297 -3.0620222091674805 -1.657902717590332 255 255 255
9.01578426361084 0.15448787808418274 -1.57814621925354 255 255 255
6.541296005249023 -3.0867676734924316 -1.7688554525375366 255 255 255
4.836583614349365 -3.6497018337249756 -1.227183222770691 255 255 255
6.461633682250977 1.5404812097549438 -1.564460277557373 255 255 255
26.592771530151367 -14.086647987365723 -1.0464413166046143 255 255 255
8.271580696105957 0.18480685353279114 -0.12304303795099258 255 255 255
7.156370162963867 0.449082612991333 -0.7609359622001648 255 255 255
5.6671013832092285 -3.4687862396240234 -0.38906508684158325 255 255 255
9.86083698272705 -8.537737846374512 0.22331185638904572 255 255 255
9.759589195251465 3.4677157402038574 0.5267214179039001 255 255 255
14.665997505187988 -1.3573105335235596 -0.516409695148468 255 255 255
9.338933944702148 0.16487157344818115 -1.568731665611267 255 255 255
15.79631519317627 -4.305813789367676 -1.6947213411331177 255 255 255
7.844519138336182 -1.597651481628418 -1.678233027458191 255 255 255
3.499835968017578 2.1013689041137695 -0.16213329136371613 255 255 255
4.370034694671631 1.5349608659744263 -0.7153815627098083 255 255 255
8.836926460266113 1.027374267578125 -0.5611831545829773 255 255 255
7.438748359680176 3.8549702167510986 -0.29636242985725403 255 255 255
12.322415351867676 -3.3837497234344482 -1.6078108549118042 255 255 255
14.950764656066895 -10.038426399230957 -0.6812410354614258 255 255 255
14.54089069366455 5.610030174255371 -0.5358139276504517 255 255 255
18.271520614624023 2.0643298625946045 -0.33106422424316406 255 255 255
4.4180474281311035 1.731030821800232 -0.5651065111160278 255 255 255
16.747177124023438 -6.747747898101807 -1.7343392372131348 255 255 255
6.819223403930664 4.588438987731934 -0.16754281520843506 255 255 255
17.504661560058594 0.5335991978645325 -0.3067184090614319 255 255 255
4.842327117919922 -4.0982666015625 -0.9860323071479797 255 255 255
38.75261306762695 -11.058938026428223 -0.7028198838233948 255 255 255
9.918538093566895 -2.6151530742645264 -1.6610751152038574 255 255 255
10.974081039428711 2.5067038536071777 -0.2794073522090912 255 255 255
9.814738273620605 -3.6111693382263184 -1.671587586402893 255 255 255
7.733802795410156 0.35826191306114197 -1.0395548343658447 255 255 255
39.47577667236328 -18.949277877807617 0.5835539698600769 255 255 255
12.870869636535645 -1.1085987091064453 -0.9333174824714661 255 255 255
6.820221900939941 4.296837329864502 0.36432942748069763 255 255 255
4.876033306121826 -3.892183780670166 -1.4324357509613037 255 255 255
19.147775650024414 3.835393190383911 -0.8593423366546631 255 255 255
6.50753116607666 0.8621249198913574 -0.9870582222938538 255 255 255
9.227852821350098 -0.29481902718544006 -1.0609006881713867 255 255 255
21.43403434753418 -0.07330615073442459 -0.15496988594532013 255 255 255
12.303922653198242 -9.118965148925781 -0.5306132435798645 255 255 255
4.042306900024414 1.9388971328735352 -0.27703285217285156 255 255 255
11.694458961486816 -8.275476455688477 0.7597934603691101 255 255 255
19.42778778076172 4.283586502075195 0.43443065881729126 255 255 255
6.410858154296875 1.5989798307418823 -1.0260640382766724 255 255 255
13.237578392028809 -2.2450010776519775 -1.648170828819275 255 255 255
21.52089500427246 0.24358899891376495 -0.10173723101615906 255 255 255
13.222107887268066 -1.1978013515472412 -1.305417537689209 255 255 255
12.19865894317627 -4.895890712738037 -1.7668311595916748 255 255 255
6.271268844604492 1.1698884963989258 -1.6935938596725464 255 255 255
12.980683326721191 -1.2665884494781494 -0.7799361944198608 255 255 255
6.529435157775879 4.7486252784729 0.1610761284828186 255 255 255
21.192092895507812 0.4693875014781952 0.8225509524345398 255 255 255
20.521352767944336 -11.624212265014648 0.4134952425956726 255 255 255
7.37876558303833 -3.2373948097229004 -1.710208773612976 255 255 255
8.263870239257812 -0.8485616445541382 -1.630011796951294 255 255 255
14.836969375610352 -1.7054656744003296 -1.554246425628662 255 255 255
14.874921798706055 -7.713779926300049 -1.8357317447662354 255 255 255
15.783683776855469 6.27970552444458 -0.4399157166481018 255 255 255
8.019076347351074 -3.3301994800567627 -1.6829596757888794 255 255 255
54.07816696166992 -9.268187522888184 1.414047122001648 255 255 255
6.162315845489502 4.517587661743164 -0.16714392602443695 255 255 255
13.913975715637207 -2.898463249206543 -1.5968655347824097 255 255 255
12.183355331420898 5.333368301391602 -0.9139143824577332 255 255 255
6.3641791343688965 -1.3039077520370483 -1.671863079071045 255 255 255
23.312339782714844 0.5810326933860779 -0.3918832838535309 255 255 255
12.618206977844238 -4.9970502853393555 -1.6879884004592896 255 255 255
5.124155044555664 1.4246376752853394 -0.8976251482963562 255 255 255
10.776594161987305 3.328869104385376 -0.04855720326304436 255 255 255
3.5691637992858887 2.3248088359832764 -0.17129404842853546 255 255 255
4.868774890899658 -4.100803852081299 -0.9033138751983643 255 255 255
3.796654462814331 2.0869836807250977 -0.19547511637210846 255 255 255
7.057751178741455 -1.8355838060379028 -1.6541330814361572 255 255 255
6.780060768127441 1.1197994947433472 -1.6157554388046265 255 255 255
3.8919196128845215 1.7044894695281982 -0.8724561929702759 255 255 255
19.729440689086914 -5.542361259460449 -1.6045604944229126 255 255 255
4.75647497177124 1.5152004957199097 -1.0061419010162354 255 255 255
19.041194915771484 -11.979644775390625 0.27047327160835266 255 255 255
3.595958709716797 2.2350594997406006 -0.11880209296941757 255 255 255
3.280245780944824 2.2248218059539795 -0.8076781034469604 255 255 255
6.564857006072998 4.454885005950928 0.2929699718952179 255 255 255
10.055665016174316 -4.225581169128418 -1.6633167266845703 255 255 255
9.247723579406738 -8.36794376373291 -0.2621801793575287 255 255 255
14.473557472229004 -2.32391357421875 -1.2009539604187012 255 255 255
7.216670513153076 -3.1704063415527344 -1.7810171842575073 255 255 255
21.76821517944336 -12.096470832824707 0.31359297037124634 255 255 255
10.632966041564941 -5.143209934234619 -1.7712911367416382 255 255 255
14.373315811157227 -2.5946884155273438 -1.661852240562439 255 255 255
12.913835525512695 -1.2956874370574951 -0.9690799713134766 255 255 255
9.744271278381348 3.793699026107788 0.49082067608833313 255 255 255
23.258668899536133 -13.024507522583008 -0.25224417448043823 255 255 255
13.17324447631836 -0.8576211333274841 -0.73553866147995 255 255 255
16.77208137512207 -7.208980083465576 -1.7556034326553345 255 255 255
12.293556213378906 -4.23183536529541 -1.681748628616333 255 255 255
5.965909957885742 -3.2005789279937744 -1.3466835021972656 255 255 255
3.446929693222046 1.9150910377502441 -0.6542661190032959 255 255 255
13.778037071228027 -2.4299285411834717 -1.6406333446502686 255 255 255
9.049221992492676 -2.506757974624634 -1.6565980911254883 255 255 255
6.772073268890381 1.5849753618240356 -1.541534423828125 255 255 255
10.858009338378906 -8.488285064697266 -0.2635936737060547 255 255 255
8.878435134887695 0.2754044234752655 -1.5644041299819946 255 255 255
4.953120231628418 -3.716843366622925 -1.2467687129974365 255 255 255
6.3229660987854 0.791927695274353 -1.5619486570358276 255 255 255
14.462749481201172 -2.37921142578125 -0.802393913269043 255 255 255
13.247910499572754 -4.631924629211426 -1.6618562936782837 255 255 255
10.329046249389648 4.738773345947266 -0.024522043764591217 255 255 255
20.195764541625977 -8.18183422088623 -1.6738169193267822 255 255 255
6.793410778045654 -0.5711160898208618 -1.6680458784103394 255 255 255
12.816256523132324 -8.943413734436035 0.06024888530373573 255 255 255
8.408976554870605 0.9577588438987732 -0.12491697818040848 255 255 255
7.269266605377197 -2.611027240753174 -1.78383469581604 255 255 255
6.887545585632324 -2.7919952869415283 -1.6956260204315186 255 255 255
9.886709213256836 -8.244475364685059 -0.7987498044967651 255 255 255
7.03480863571167 -0.8560154438018799 -1.7015918493270874 255 255 255
12.302834510803223 -4.451480865478516 -1.7739633321762085 255 255 255
23.946794509887695 -5.870330333709717 -1.5099964141845703 255 255 255
10.408182144165039 -2.206190586090088 -1.687218189239502 255 255 255
12.996809005737305 -0.9744874835014343 -0.9165131449699402 255 255 255
15.885018348693848 -5.917551040649414 -1.6675037145614624 255 255 255
6.660196781158447 4.294335842132568 0.04355114325881004 255 255 255
7.613124847412109 0.40992671251296997 -1.27727472782135 255 255 255
7.197836399078369 1.6013479232788086 -0.5745970010757446 255 255 255
3.705404758453369 2.5808231830596924 -0.1561674326658249 255 255 255
8.125520706176758 0.5189715027809143 -0.1274917721748352 255 255 255
6.702314376831055 1.2697734832763672 -1.576731562614441 255 255 255
7.826515197753906 -2.4214277267456055 -1.6674506664276123 255 255 255
11.103546142578125 5.99314022064209 0.5882065296173096 255 255 255
5.02090311050415 1.4628241062164307 -0.941227912902832 255 255 255
12.98267936706543 -0.6770972013473511 -0.6570224165916443 255 255 255
7.649079322814941 -1.9355653524398804 -1.71890127658844 255 255 255
23.66757583618164 -10.173535346984863 -0.40648195147514343 255 255 255
17.370037078857422 5.106385231018066 0.5635392665863037 255 255 255
10.960139274597168 -2.09024715423584 -1.6390353441238403 255 255 255
6.643524169921875 1.6308637857437134 -1.0591425895690918 255 255 255
9.551786422729492 -4.458131790161133 -1.844506025314331 255 255 255
17.57253074645996 -5.2990946769714355 -1.5429511070251465 255 255 255
13.52849292755127 -1.5428030490875244 -0.22821900248527527 255 255 255
12.224210739135742 -4.305567264556885 -1.7107394933700562 255 255 255
18.929534912109375 -8.651274681091309 -1.09322190284729 255 255 255
6.124264717102051 0.3790968060493469 -1.722334861755371 255 255 255
10.35541820526123 4.7407002449035645 -0.023197412490844727 255 255 255
11.198532104492188 -8.675450325012207 -0.8445782661437988 255 255 255
18.015804290771484 0.7714423537254333 -0.3162696659564972 255 255 255
13.05624008178711 -1.1487447023391724 -0.6152406334877014 255 255 255
11.937018394470215 -4.172915458679199 -1.782789707183838 255 255 255
3.1515426635742188 2.056790828704834 -0.7787419557571411 255 255 255
8.658649444580078 -1.83173406124115 -1.598374843597412 255 255 255
21.102266311645508 -0.5161941647529602 -0.06495962291955948 255 255 255
18.030364990234375 -11.149654388427734 -0.45121318101882935 255 255 255
6.842386722564697 0.8671998977661133 -0.6311475038528442 255 255 255
29.658010482788086 -15.238429069519043 -1.212571382522583 255 255 255
4.742395401000977 1.4828938245773315 -1.2371230125427246 255 255 255
8.64162826538086 3.3259193897247314 -0.9387451410293579 255 255 255
3.4254682064056396 1.9432293176651 -0.7726015448570251 255 255 255
8.819153785705566 -3.7387783527374268 -1.8217023611068726 255 255 255
5.22163724899292 -3.1417958736419678 -0.9764588475227356 255 255 255
20.720996856689453 3.785642385482788 -0.18061451613903046 255 255 255
8.411564826965332 0.28696539998054504 -1.5958284139633179 255 255 255
4.163362979888916 1.6833380460739136 -0.9869640469551086 255 255 255
6.3109636306762695 -2.5572402477264404 -1.7742693424224854 255 255 255
17.355398178100586 2.029790163040161 0.3959600329399109 255 255 255
26.393251419067383 -7.344149589538574 -1.612743616104126 255 255 255
12.74250602722168 -2.291083812713623 -1.5920119285583496 255 255 255
12.470532417297363 -1.2228528261184692 -1.596692442893982 255 255 255
9.629352569580078 3.1036148071289062 -0.7489386200904846 255 255 255
21.54009437561035 -1.6297566890716553 0.8748061656951904 255 255 255
8.333413124084473 -1.5586674213409424 -1.6957558393478394 255 255 255
4.278842449188232 1.6619793176651 -1.0408999919891357 255 255 255
6.480719566345215 -0.36595484614372253 -1.7840347290039062 255 255 255
12.505231857299805 -5.28748893737793 -1.766342043876648 255 255 255
4.043281078338623 1.7950948476791382 -0.3072786331176758 255 255 255
3.1844980716705322 2.1475181579589844 -0.8644225597381592 255 255 255
15.826077461242676 6.247924327850342 0.10088515281677246 255 255 255
11.850225448608398 -1.5560219287872314 -1.6252959966659546 255 255 255
8.706202507019043 -0.047485578805208206 -1.115096092224121 255 255 255
10.927403450012207 -2.524756669998169 -1.6401947736740112 255 255 255
6.8088698387146 1.6381428241729736 -0.6832099556922913 255 255 255
21.860698699951172 -1.213767170906067 0.41417673230171204 255 255 255
9.323349952697754 3.1179039478302 -0.26184022426605225 255 255 255
3.1939032077789307 2.115928888320923 -0.7367809414863586 255 255 255
8.170753479003906 0.07389217615127563 -0.9343814253807068 255 255 255
13.15951919555664 -0.7506135702133179 -0.7951957583427429 255 255 255
13.990442276000977 -3.9509379863739014 -1.6666916608810425 255 255 255
6.963581085205078 -3.798407793045044 -1.6615053415298462 255 255 255
16.51980972290039 -3.0505661964416504 -1.52782142162323 255 255 255
14.661728858947754 -1.4434176683425903 -0.3902308940887451 255 255 255
20.507343292236328 3.8339104652404785 0.5038439035415649 255 255 255
20.785219192504883 -9.5238618850708 -1.7754818201065063 255 255 255
14.576287269592285 -9.584951400756836 -0.05667496100068092 255 255 255
10.292390823364258 3.492799758911133 -0.03835519403219223 255 255 255
12.724794387817383 -3.1769025325775146 -1.7378320693969727 255 255 255
7.175725936889648 -0.9436157941818237 -1.7621046304702759 255 255 255
13.57759952545166 -0.6023208498954773 -0.3466225862503052 255 255 255
19.210622787475586 4.431542873382568 -0.36400550603866577 255 255 255
14.178958892822266 -1.4845037460327148 -1.5772643089294434 255 255 255
18.92340087890625 -9.247328758239746 -1.7386939525604248 255 255 255
14.110395431518555 -9.753399848937988 -0.20975185930728912 255 255 255
13.104177474975586 -0.9089077711105347 -0.7588975429534912 255 255 255
17.434005737304688 -3.830767869949341 -1.6163181066513062 255 255 255
11.079401016235352 2.3911802768707275 -0.41054436564445496 255 255 255
9.604226112365723 2.941535472869873 -1.2642110586166382 255 255 255
10.352509498596191 4.897420883178711 0.12024478614330292 255 255 255
18.981897354125977 -8.50812816619873 -0.685785710811615 255 255 255
13.267084121704102 -4.581932067871094 -1.7359060049057007 255 255 255
14.386242866516113 -1.12630033493042 -0.5011536478996277 255 255 255
6.9207048416137695 0.6334660649299622 -0.8114497065544128 255 255 255
18.012849807739258 -10.874015808105469 -1.0760911703109741 255 255 255
6.349356174468994 1.1973240375518799 -1.027087926864624 255 255 255
6.452484607696533 1.5027600526809692 -1.2655280828475952 255 255 255
9.092000007629395 3.409214496612549 -0.776240348815918 255 255 255
10.405679702758789 -8.240023612976074 -0.3989652097225189 255 255 255
7.720431804656982 5.616157531738281 0.0927901566028595 255 255 255
7.933935165405273 -0.6711264848709106 -1.7024000883102417 255 255 255
21.40524673461914 -0.07460436224937439 0.9535667896270752 255 255 255
6.610616207122803 4.133938312530518 0.4510115385055542 255 255 255
15.183318138122559 -3.920027017593384 -1.554028034210205 255 255 255
5.207912445068359 -3.9679079055786133 -0.3183846175670624 255 255 255
6.4072089195251465 1.4927138090133667 -1.03269624710083 255 255 255
11.86972713470459 -2.9150805473327637 -1.66305410861969 255 255 255
12.069576263427734 -5.8369293212890625 -1.7768298387527466 255 255 255
18.21009063720703 4.730820655822754 -0.27980002760887146 255 255 255
23.834659576416016 -5.179606914520264 -1.4928005933761597 255 255 255
4.971043109893799 -3.8308095932006836 -0.9718865752220154 255 255 255
19.086345672607422 4.4799628257751465 0.10427718609571457 255 255 255
16.53201675415039 0.35607823729515076 -0.28966593742370605 255 255 255
13.458084106445312 -8.16243839263916 0.5368384122848511 255 255 255
19.58946418762207 4.33161735534668 -0.6149078011512756 255 255 255
8.65141487121582 -7.552795886993408 -1.328294277191162 255 255 255
11.832401275634766 -1.5365177392959595 -1.593278408050537 255 255 255
28.368947982788086 -7.4557929039001465 -1.4521821737289429 255 255 255
7.209171295166016 0.5378488898277283 -1.2724666595458984 255 255 255
9.191999435424805 -4.575583457946777 -1.7409241199493408 255 255 255
15.659905433654785 5.7441725730896 -0.2844846844673157 255 255 255
9.770400047302246 -0.7142598628997803 -1.6330788135528564 255 255 255
6.851300239562988 4.200210094451904 -0.1683584302663803 255 255 255
12.280259132385254 -8.379047393798828 0.542158305644989 255 255 255
14.802592277526855 -7.5280561447143555 -1.7419465780258179 255 255 255
22.124391555786133 -12.237405776977539 -0.1201477199792862 255 255 255
10.265275955200195 -8.941633224487305 -0.12225224822759628 255 255 255
18.19828987121582 2.9503896236419678 0.5753620862960815 255 255 255
6.612972736358643 1.2015944719314575 -1.2812086343765259 255 255 255
13.185972213745117 3.931424617767334 -0.2547615170478821 255 255 255
18.665761947631836 -11.124661445617676 -0.6021412014961243 255 255 255
23.11029052734375 -8.31187915802002 -1.6583471298217773 255 255 255
9.827094078063965 -7.929637908935547 -0.17955438792705536 255 255 255
8.093355178833008 0.11209407448768616 -1.3131403923034668 255 255 255
7.0365071296691895 4.113422393798828 0.4597727060317993 255 255 255
5.1450066566467285 -4.089133262634277 -0.8709220886230469 255 255 255
7.002338409423828 4.177839279174805 -0.24067972600460052 255 255 255
6.220743179321289 0.019637878984212875 -1.5578811168670654 255 255 255
11.724957466125488 -4.130521774291992 -1.5896621942520142 255 255 255
5.0388712882995605 -3.663086414337158 -1.2444335222244263 255 255 255
7.2586894035339355 0.27375683188438416 -1.6153628826141357 255 255 255
7.322976589202881 -2.1858913898468018 -1.7507342100143433 255 255 255
14.759629249572754 -2.523737668991089 -0.9654837846755981 255 255 255
6.694719314575195 0.20810841023921967 -1.6172599792480469 255 255 255
11.80562973022461 -8.902976989746094 0.5561094880104065 255 255 255
45.31691360473633 -15.624676704406738 -1.3066617250442505 255 255 255
7.9585371017456055 0.12821811437606812 -0.8986058235168457 255 255 255
7.428634166717529 -1.0784683227539062 -1.6352893114089966 255 255 255
9.566024780273438 -1.439270257949829 -1.658399224281311 255 255 255
3.9617013931274414 1.7998249530792236 -0.7946599125862122 255 255 255
16.604236602783203 4.697941303253174 -0.7173382043838501 255 255 255
15.68740177154541 -7.913217067718506 -1.7352452278137207 255 255 255
14.346653938293457 -2.7064335346221924 -1.6333370208740234 255 255 255
16.557212829589844 -3.2268378734588623 -1.598321557044983 255 255 255
7.845263957977295 0.543891429901123 -1.68792724609375 255 255 255
20.849590301513672 3.6978759765625 -0.2921428680419922 255 255 255
6.436472415924072 -1.1645183563232422 -1.6960031986236572 255 255 255
9.369935989379883 3.2512264251708984 -0.4432397186756134 255 255 255
8.625287055969238 -7.630588531494141 -0.7484644651412964 255 255 255
18.47384262084961 0.7873973250389099 0.6999200582504272 255 255 255
7.483534812927246 -0.815272331237793 -1.6813111305236816 255 255 255
12.113821029663086 -8.950632095336914 -0.5652761459350586 255 255 255
6.8749260902404785 4.859106063842773 -0.06847479939460754 255 255 255
17.011659622192383 9.025984764099121 -0.1403830498456955 255 255 255
20.72875213623047 -4.188737869262695 -1.5152102708816528 255 255 255
6.638040065765381 4.375517845153809 0.2598389983177185 255 255 255
6.266905307769775 -0.17168918251991272 -1.6803644895553589 255 255 255
7.98939847946167 -3.739123821258545 -1.7671769857406616 255 255 255
9.886804580688477 -1.7503145933151245 -1.582197904586792 255 255 255
13.689152717590332 3.562467336654663 0.4291006922721863 255 255 255
10.396130561828613 -3.3289804458618164 -1.7720171213150024 255 255 255
6.781492233276367 -3.272372007369995 -1.7441920042037964 255 255 255
10.135599136352539 -4.379099369049072 -1.7639598846435547 255 255 255
44.38629913330078 -7.8229146003723145 -0.18529397249221802 255 255 255
10.21541690826416 -9.369584083557129 0.34105390310287476 255 255 255
10.84937858581543 3.0615713596343994 0.27547380328178406 255 255 255
6.540136814117432 0.9464415311813354 -0.9839834570884705 255 255 255
7.721796989440918 -0.5527713894844055 -1.659859538078308 255 255 255
7.442399501800537 1.2355902194976807 -1.6554313898086548 255 255 255
7.1388092041015625 -0.8105886578559875 -1.6074938774108887 255 255 255
6.856334686279297 1.6424944400787354 -1.6165099143981934 255 255 255
4.699745178222656 1.5683693885803223 -0.8938509225845337 255 255 255
34.07789993286133 -3.888349771499634 0.5110517740249634 255 255 255
60.29533386230469 -26.950193405151367 0.9179195165634155 255 255 255
