ply
format ascii 1.0
element vertex 690
property float x
property float y
property float z
property uchar red
property uchar green
property uchar blue
end_header
9.917912483215332 3.2397561073303223 -0.7813315391540527 255 255 255
8.579492568969727 0.18405675888061523 -0.8638530969619751 255 255 255
10.292509078979492 3.766807794570923 -0.1923208236694336 255 255 255
11.93448543548584 -2.1022047996520996 -1.6693333387374878 255 255 255
8.62852668762207 0.5442958474159241 -0.08507949113845825 255 255 255
8.378523826599121 0.2833453118801117 -0.9362022280693054 255 255 255
11.011282920837402 -2.095083475112915 -1.6032063961029053 255 255 255
6.374063968658447 1.8070790767669678 -1.5991122722625732 255 255 255
15.42566204071045 -6.474387168884277 -1.7698127031326294 255 255 255
4.95213508605957 -3.7982547283172607 -1.2242316007614136 255 255 255
10.349662780761719 5.104915142059326 -0.2408488392829895 255 255 255
12.745418548583984 -3.5641987323760986 -1.7234275341033936 255 255 255
8.935873031616211 3.367492914199829 -0.937972366809845 255 255 255
9.339786529541016 4.48459005355835 0.4620521366596222 255 255 255
6.365089416503906 1.6324573755264282 -0.9145974516868591 255 255 255
15.983329772949219 -4.010933876037598 -1.62720787525177 255 255 255
12.37552261352539 -1.872999668121338 -1.6097468137741089 255 255 255
13.156786918640137 -0.19337566196918488 -0.5669576525688171 255 255 255
6.550760746002197 -1.7533475160598755 -1.7863795757293701 255 255 255
23.66062355041504 -12.314215660095215 -0.3223910629749298 255 255 255
12.955376625061035 -1.0549273490905762 -0.7875878214836121 255 255 255
4.520205020904541 1.6914693117141724 -1.0492324829101562 255 255 255
19.174114227294922 -10.521096229553223 0.11905781179666519 255 255 255
10.240514755249023 3.193812847137451 -0.8200152516365051 255 255 255
4.605352878570557 1.7224758863449097 -1.0570389032363892 255 255 255
19.49869728088379 4.870182037353516 0.1533166468143463 255 255 255
18.787939071655273 -4.0749311447143555 -1.6274412870407104 255 255 255
9.595972061157227 4.906686782836914 0.6486779451370239 255 255 255
13.356149673461914 5.426287651062012 -0.8149271011352539 255 255 255
13.843951225280762 8.555458068847656 -0.4976023733615875 255 255 255
3.106912136077881 2.3908932209014893 -0.19896851480007172 255 255 255
18.396455764770508 3.5962650775909424 0.8289517164230347 255 255 255
6.728402614593506 0.8740687370300293 -1.3946834802627563 255 255 255
9.620866775512695 3.3880622386932373 -0.8097621202468872 255 255 255
5.091198921203613 -3.308479070663452 -0.9894981384277344 255 255 255
5.079212188720703 -3.7278943061828613 -1.1306153535842896 255 255 255
13.60244369506836 -1.4456877708435059 -1.1967463493347168 255 255 255
6.525574207305908 1.9978967905044556 -0.9726702570915222 255 255 255
20.41507911682129 4.537115097045898 0.18627886474132538 255 255 255
11.027453422546387 -2.4251108169555664 -1.6989293098449707 255 255 255
12.214669227600098 -5.503303527832031 -1.8418734073638916 255 255 255
18.53543472290039 0.2682822346687317 -0.4756620228290558 255 255 255
10.441546440124512 -7.873753070831299 -0.4475722908973694 255 255 255
17.81188201904297 -4.89247465133667 -1.7086437940597534 255 255 255
12.022943496704102 -8.446175575256348 -0.48495468497276306 255 255 255
8.0010404586792 -1.8370306491851807 -1.7182618379592896 255 255 255
12.789255142211914 4.834640026092529 -0.9683163166046143 255 255 255
13.012033462524414 -7.718783378601074 0.3735574185848236 255 255 255
11.811016082763672 -1.7031577825546265 -1.661345362663269 255 255 255
6.928183078765869 0.9110105633735657 -0.7667846083641052 255 255 255
15.21462631225586 -3.0583314895629883 -1.518386960029602 255 255 255
21.256906509399414 -5.921614646911621 -1.5461890697479248 255 255 255
4.098296165466309 1.9079115390777588 -0.9908393621444702 255 255 255
6.796363830566406 1.2606463432312012 -0.6720762848854065 255 255 255
6.8850884437561035 1.9025160074234009 -1.5739059448242188 255 255 255
13.415452003479004 4.416297435760498 -0.2900586724281311 255 255 255
6.635985851287842 1.3908064365386963 -1.0065922737121582 255 255 255
5.153975009918213 -3.3069965839385986 -1.2914851903915405 255 255 255
7.206320285797119 1.113145112991333 -1.5519856214523315 255 255 255
3.6979784965515137 2.153371572494507 -0.21312850713729858 255 255 255
14.29394245147705 -9.131058692932129 -0.3788628876209259 255 255 255
7.14922571182251 1.3046834468841553 -1.523478388786316 255 255 255
7.210857391357422 4.287249565124512 0.008528180420398712 255 255 255
18.166170120239258 2.118438482284546 0.8326189517974854 255 255 255
5.0307488441467285 -3.4419569969177246 -1.2204753160476685 255 255 255
33.66212844848633 -15.429435729980469 -0.7641472220420837 255 255 255
8.048105239868164 3.9284727573394775 -0.8064885139465332 255 255 255
9.084861755371094 3.962150812149048 0.309427946805954 255 255 255
9.491363525390625 -7.450328826904297 -0.7325852513313293 255 255 255
13.054128646850586 -1.3097964525222778 -0.5125028491020203 255 255 255
9.224226951599121 0.13384296000003815 -1.1147938966751099 255 255 255
10.790742874145508 -8.058215141296387 -0.5964291095733643 255 255 255
19.823190689086914 4.810396671295166 -0.6216142773628235 255 255 255
17.85167694091797 1.9495527744293213 0.8004112243652344 255 255 255
16.75436019897461 -3.696291208267212 -1.6138232946395874 255 255 255
7.257495880126953 -3.441568374633789 -1.1903493404388428 255 255 255
20.683364868164062 4.441701889038086 -0.6206857562065125 255 255 255
6.781400680541992 1.9759427309036255 -1.5948797464370728 255 255 255
12.781498908996582 -1.8256971836090088 -1.6798182725906372 255 255 255
14.293883323669434 6.1222124099731445 -0.5868607759475708 255 255 255
6.737679958343506 0.9862972497940063 -1.3544485569000244 255 255 255
10.905265808105469 6.303854465484619 0.49187591671943665 255 255 255
17.38899803161621 2.8106720447540283 -0.026023397222161293 255 255 255
21.258956909179688 -0.8234237432479858 0.557284414768219 255 255 255
7.133395195007324 -0.46533912420272827 -1.6871178150177002 255 255 255
6.552798748016357 -0.24798241257667542 -1.6547943353652954 255 255 255
12.661508560180664 -5.749416351318359 -1.6742302179336548 255 255 255
12.627643585205078 -0.44665586948394775 -1.6299651861190796 255 255 255
18.85570526123047 5.112673282623291 0.5917122960090637 255 255 255
7.04754114151001 0.6160827875137329 -1.0899051427841187 255 255 255
9.312416076660156 1.1499509811401367 -0.4713369309902191 255 255 255
4.983008861541748 -3.79740309715271 -0.7971221208572388 255 255 255
15.262096405029297 2.6948676109313965 0.5865288376808167 255 255 255
12.137808799743652 -7.756014823913574 0.26001864671707153 255 255 255
12.39917278289795 -2.2661852836608887 -1.654512643814087 255 255 255
13.889869689941406 8.271105766296387 -0.41436901688575745 255 255 255
7.69265079498291 0.764957070350647 -0.26075127720832825 255 255 255
8.982741355895996 -0.22303828597068787 -1.6245673894882202 255 255 255
23.783702850341797 -8.743654251098633 -1.6521152257919312 255 255 255
19.966102600097656 -10.309053421020508 0.7001407742500305 255 255 255
36.13936233520508 -11.717500686645508 -1.3901461362838745 255 255 255
6.515923500061035 4.59260892868042 0.05693840608000755 255 255 255
13.907333374023438 8.424537658691406 -0.5784681439399719 255 255 255
12.963286399841309 4.7371931076049805 -0.735270619392395 255 255 255
9.89295482635498 -2.8837788105010986 -1.7377989292144775 255 255 255
10.153576850891113 -7.450186729431152 -0.11277498304843903 255 255 255
6.5611701011657715 0.9910287857055664 -1.6437556743621826 255 255 255
8.18919849395752 6.346231460571289 -0.23693189024925232 255 255 255
20.16310691833496 4.721225261688232 0.06562143564224243 255 255 255
15.174989700317383 2.8789069652557373 -0.10677607357501984 255 255 255
10.316779136657715 5.497469902038574 0.32661890983581543 255 255 255
3.4873321056365967 2.3488609790802 -0.09228848665952682 255 255 255
5.953603744506836 -4.1447343826293945 -0.7087135314941406 255 255 255
6.533899784088135 4.842978477478027 0.47247207164764404 255 255 255
10.977483749389648 -8.181818962097168 0.4857204556465149 255 255 255
18.161636352539062 5.0948710441589355 -0.6739013195037842 255 255 255
11.394159317016602 -8.043957710266113 0.24185821413993835 255 255 255
11.7218656539917 -0.508337140083313 -1.6601759195327759 255 255 255
14.982462882995605 6.207921028137207 -0.7237112522125244 255 255 255
9.22229290008545 4.5314459800720215 0.5598483085632324 255 255 255
12.483935356140137 7.447545051574707 -0.8689174652099609 255 255 255
10.82399845123291 5.743552207946777 0.661678671836853 255 255 255
11.820859909057617 -4.909358978271484 -1.7443968057632446 255 255 255
10.034353256225586 3.942338705062866 -0.023852918297052383 255 255 255
8.591669082641602 -7.369377136230469 -0.7013968825340271 255 255 255
13.934491157531738 7.793689727783203 -0.4357973635196686 255 255 255
17.47939109802246 4.229068756103516 -0.805985689163208 255 255 255
6.361138343811035 4.636345863342285 0.39085817337036133 255 255 255
11.709166526794434 4.932860374450684 -0.9078226089477539 255 255 255
21.776859283447266 -0.28398483991622925 0.33377814292907715 255 255 255
11.984862327575684 -3.4769012928009033 -1.6583709716796875 255 255 255
8.692758560180664 -1.4981067180633545 -1.6735708713531494 255 255 255
11.964600563049316 -7.918863296508789 0.17839591205120087 255 255 255
5.284709930419922 -2.869198799133301 -0.9384622573852539 255 255 255
13.081622123718262 -0.39027050137519836 -0.941782534122467 255 255 255
9.488625526428223 -0.292880117893219 -1.613182544708252 255 255 255
17.46854591369629 2.211872100830078 -0.1275615096092224 255 255 255
6.779598236083984 2.204958915710449 -0.8958660960197449 255 255 255
19.222774505615234 -9.5871000289917 -1.6923978328704834 255 255 255
11.904969215393066 -2.8459882736206055 -1.723461389541626 255 255 255
18.358177185058594 3.5310940742492676 0.8924488425254822 255 255 255
6.907401084899902 4.401130676269531 -0.0005081932176835835 255 255 255
16.115901947021484 7.746857166290283 0.17544673383235931 255 255 255
2.9079134464263916 2.297959566116333 -0.7553914785385132 255 255 255
6.668640613555908 -2.4154298305511475 -1.7601765394210815 255 255 255
12.89441967010498 7.480665683746338 -0.5553169846534729 255 255 255
13.84839153289795 7.988987445831299 -0.3209104835987091 255 255 255
6.421117782592773 4.723145484924316 0.1314276158809662 255 255 255
6.110958099365234 -3.594338893890381 -0.8379425406455994 255 255 255
7.182039260864258 1.6256121397018433 -0.5739104747772217 255 255 255
15.318778991699219 -2.177844524383545 -0.8743033409118652 255 255 255
11.919543266296387 -1.8264050483703613 -1.5970004796981812 255 255 255
14.961292266845703 -1.2661974430084229 -1.553529143333435 255 255 255
9.868583679199219 -0.7368793487548828 -1.543023943901062 255 255 255
22.629711151123047 -0.21398189663887024 -0.6460592746734619 255 255 255
3.873502016067505 1.8165428638458252 -1.0636461973190308 255 255 255
9.505218505859375 -0.9210312366485596 -1.5746302604675293 255 255 255
6.368558883666992 1.878179907798767 -1.126346468925476 255 255 255
9.796833038330078 -0.4454183578491211 -1.5982948541641235 255 255 255
14.555464744567871 -3.5042266845703125 -1.7461570501327515 255 255 255
22.205718994140625 -10.957120895385742 0.5542038679122925 255 255 255
6.7918314933776855 4.586074352264404 0.35013875365257263 255 255 255
16.039297103881836 -5.06547737121582 -1.6798136234283447 255 255 255
8.439789772033691 3.827369451522827 -0.8789806962013245 255 255 255
3.30440092086792 2.0603694915771484 -0.7084460854530334 255 255 255
8.028247833251953 -1.9626615047454834 -1.6348273754119873 255 255 255
8.563981056213379 -0.9920074343681335 -1.6099028587341309 255 255 255
20.914155960083008 -11.023233413696289 -1.1487561464309692 255 255 255
5.129852294921875 -4.113563537597656 -0.8381419777870178 255 255 255
28.845733642578125 -7.065135955810547 -1.4568817615509033 255 255 255
3.3774020671844482 2.112548589706421 -0.910754919052124 255 255 255
6.700797080993652 -2.3006889820098877 -1.6767816543579102 255 255 255
19.209280014038086 -7.865935325622559 -1.462870717048645 255 255 255
3.9660680294036865 1.9575849771499634 -0.797494649887085 255 255 255
35.11760330200195 -9.3428316116333 -1.3511515855789185 255 255 255
14.225584983825684 -9.30980110168457 -0.22164760529994965 255 255 255
9.94961929321289 5.143394470214844 0.26114434003829956 255 255 255
13.206879615783691 -1.3107514381408691 -1.6161537170410156 255 255 255
15.894229888916016 7.390075206756592 -0.3470005691051483 255 255 255
12.276881217956543 -4.843233585357666 -1.6894023418426514 255 255 255
3.6544313430786133 2.542736530303955 -0.12724940478801727 255 255 255
6.5056257247924805 4.481238842010498 0.3206537067890167 255 255 255
6.725111961364746 -2.645623207092285 -1.7914754152297974 255 255 255
6.386654376983643 -3.197596549987793 -1.0490059852600098 255 255 255
18.744199752807617 0.03898869454860687 -0.7676343321800232 255 255 255
20.651430130004883 -7.700254917144775 -1.673397183418274 255 255 255
7.283709526062012 -2.5493478775024414 -1.8071119785308838 255 255 255
15.951507568359375 6.193936824798584 0.23280848562717438 255 255 255
6.3395891189575195 -0.10122865438461304 -1.6546118259429932 255 255 255
10.420255661010742 -1.0303393602371216 -1.6593992710113525 255 255 255
15.935626983642578 7.572478771209717 0.08814480900764465 255 255 255
9.704885482788086 -7.513786315917969 0.3357563614845276 255 255 255
12.374608993530273 -1.338940978050232 -1.5177301168441772 255 255 255
10.342123031616211 5.74591588973999 0.46229055523872375 255 255 255
20.164775848388672 -11.357797622680664 0.27775001525878906 255 255 255
6.570483684539795 1.3898698091506958 -0.787869393825531 255 255 255
19.820463180541992 4.738918304443359 0.001335571869276464 255 255 255
23.43465232849121 -11.867369651794434 -1.389818549156189 255 255 255
23.084152221679688 -1.8929016590118408 0.9691860675811768 255 255 255
32.4892463684082 -10.219289779663086 -1.4854265451431274 255 255 255
12.891157150268555 -3.3844690322875977 -1.6559555530548096 255 255 255
8.258737564086914 3.8965206146240234 -0.8586411476135254 255 255 255
15.910835266113281 -3.7345621585845947 -1.6092920303344727 255 255 255
6.417778491973877 1.6291981935501099 -1.0105676651000977 255 255 255
6.471984386444092 -2.2702276706695557 -1.725533127784729 255 255 255
6.382260322570801 1.6276637315750122 -1.5217829942703247 255 255 255
19.065820693969727 1.6386325359344482 -0.17575739324092865 255 255 255
12.958358764648438 -0.976189136505127 -0.9172008037567139 255 255 255
6.453586578369141 1.0831936597824097 -1.0730453729629517 255 255 255
6.359992027282715 0.786662220954895 -1.7358072996139526 255 255 255
7.002872943878174 4.214180946350098 0.047193896025419235 255 255 255
6.833265781402588 4.450987339019775 -0.2196565866470337 255 255 255
20.318777084350586 4.584399700164795 -0.18787285685539246 255 255 255
9.70502758026123 -4.334122657775879 -1.7453058958053589 255 255 255
3.9299821853637695 2.0348122119903564 -0.8255689144134521 255 255 255
6.556421279907227 -1.7442642450332642 -1.6916017532348633 255 255 255
8.619437217712402 -2.6589808464050293 -1.7388476133346558 255 255 255
21.03382110595703 -4.085081577301025 -1.5323913097381592 255 255 255
5.17228364944458 -3.300583600997925 -0.9212183952331543 255 255 255
8.287235260009766 -0.447213739156723 -1.668562889099121 255 255 255
13.50011920928955 -0.2728293836116791 -1.2944897413253784 255 255 255
8.969876289367676 0.3784559965133667 -1.6426538228988647 255 255 255
19.37244987487793 -7.589537620544434 -1.6887738704681396 255 255 255
16.68621063232422 -2.552417755126953 -1.4700028896331787 255 255 255
6.319942951202393 1.4669142961502075 -1.5974154472351074 255 255 255
7.844635486602783 0.4713285565376282 -0.8555062413215637 255 255 255
8.448111534118652 0.5306594371795654 -0.15992608666419983 255 255 255
9.96903133392334 -1.9765846729278564 -1.7170058488845825 255 255 255
8.326967239379883 0.685960590839386 -0.4311811029911041 255 255 255
19.278013229370117 -6.8908891677856445 -1.703526258468628 255 255 255
7.092915058135986 -0.14397600293159485 -1.6426507234573364 255 255 255
4.406627655029297 1.8725941181182861 -1.1750444173812866 255 255 255
15.510650634765625 2.874630928039551 -0.021051570773124695 255 255 255
9.422262191772461 3.181581974029541 -0.8358812928199768 255 255 255
58.482330322265625 -23.90678596496582 -0.6816983222961426 255 255 255
6.867851257324219 -3.091228485107422 -1.7664507627487183 255 255 255
10.15946102142334 -7.939286231994629 -0.7586718201637268 255 255 255
7.218818664550781 0.7951775193214417 -1.2370771169662476 255 255 255
21.438390731811523 -6.216886520385742 -1.6228337287902832 255 255 255
16.82758331298828 -4.459775447845459 -1.5503709316253662 255 255 255
10.469347953796387 -7.719552993774414 0.23229339718818665 255 255 255
22.014820098876953 -10.967336654663086 -1.798823595046997 255 255 255
4.709070682525635 1.6407221555709839 -1.034310221672058 255 255 255
6.804418563842773 -1.748859167098999 -1.6997861862182617 255 255 255
12.555784225463867 -3.3331596851348877 -1.6915885210037231 255 255 255
6.937292098999023 0.8323280811309814 -0.7400391101837158 255 255 255
5.164877414703369 -3.174137830734253 -0.868876576423645 255 255 255
14.5400390625 -0.8288343548774719 -0.332919716835022 255 255 255
3.1886422634124756 2.439185380935669 -0.1286003142595291 255 255 255
10.69472885131836 5.655086994171143 -0.6188663244247437 255 255 255
13.710942268371582 6.401086330413818 -0.7071204781532288 255 255 255
13.387750625610352 -0.07107646763324738 -0.5431429147720337 255 255 255
7.506698131561279 -0.6050548553466797 -1.6427956819534302 255 255 255
8.317113876342773 -1.3040552139282227 -1.6458783149719238 255 255 255
3.819664478302002 2.200383424758911 -0.19877010583877563 255 255 255
3.5009450912475586 2.2685651779174805 -0.15627415478229523 255 255 255
3.928288459777832 1.9878324270248413 -0.3627740144729614 255 255 255
11.651236534118652 5.07190465927124 -0.9340932369232178 255 255 255
9.57964038848877 -2.285008430480957 -1.7196136713027954 255 255 255
9.23594856262207 4.2536702156066895 0.45505291223526 255 255 255
17.04656410217285 -9.90629768371582 -0.9504716396331787 255 255 255
9.787049293518066 -7.32156229019165 -0.23528140783309937 255 255 255
3.497767686843872 1.9765924215316772 -0.8464540839195251 255 255 255
7.120190143585205 0.794078528881073 -0.6180441379547119 255 255 255
5.364787578582764 -3.0754952430725098 -0.5450430512428284 255 255 255
7.036538600921631 1.725706934928894 -1.4951021671295166 255 255 255
9.972865104675293 3.0313961505889893 -0.7251419425010681 255 255 255
13.460417747497559 3.809302806854248 0.39601975679397583 255 255 255
17.005163192749023 5.728881359100342 -0.4779169261455536 255 255 255
21.448945999145508 0.6515617966651917 -0.11925321817398071 255 255 255
7.0228800773620605 -2.247894525527954 -1.6565790176391602 255 255 255
10.637661933898926 3.6140925884246826 0.29111820459365845 255 255 255
7.158725738525391 4.413508415222168 0.19729909300804138 255 255 255
15.554471015930176 6.2254638671875 -0.5616343021392822 255 255 255
17.084110260009766 2.6551926136016846 0.24107421934604645 255 255 255
11.793254852294922 -0.8133543729782104 -1.6858431100845337 255 255 255
6.878475666046143 4.490992546081543 -0.20953400433063507 255 255 255
13.761114120483398 -1.5760257244110107 -0.6050190925598145 255 255 255
7.679991245269775 -3.539134979248047 -1.6770119667053223 255 255 255
6.968395233154297 1.3087751865386963 -0.780393123626709 255 255 255
75.45536041259766 -16.43748664855957 0.9091131091117859 255 255 255
3.7267680168151855 1.957141399383545 -0.8228359818458557 255 255 255
5.387430191040039 -2.9621734619140625 -0.8643661737442017 255 255 255
12.375340461730957 -8.5405855178833 -0.6302486062049866 255 255 255
46.896942138671875 -16.178730010986328 -1.3352221250534058 255 255 255
15.313081741333008 -6.284303188323975 -1.6703273057937622 255 255 255
6.530125617980957 2.0100653171539307 -0.9615971446037292 255 255 255
12.650993347167969 -8.01487922668457 0.440084844827652 255 255 255
12.586000442504883 7.1534318923950195 -0.8033164143562317 255 255 255
5.461546897888184 -2.862159013748169 -1.1791423559188843 255 255 255
6.318690776824951 4.743142604827881 0.1349717080593109 255 255 255
15.545479774475098 -8.915989875793457 0.2869178354740143 255 255 255
8.896187782287598 -7.141898155212402 -1.1321607828140259 255 255 255
7.100861072540283 -0.37337812781333923 -1.6614100933074951 255 255 255
12.058302879333496 -1.7096832990646362 -1.6599797010421753 255 255 255
12.346778869628906 -4.336007118225098 -1.7639068365097046 255 255 255
41.068504333496094 -17.90538215637207 -0.24954432249069214 255 255 255
9.25609302520752 3.9723572731018066 0.5598481297492981 255 255 255
12.67734146118164 7.521084785461426 -0.7110124826431274 255 255 255
3.8397061824798584 2.0234639644622803 -0.9444429874420166 255 255 255
4.306107521057129 1.8653638362884521 -1.0065557956695557 255 255 255
9.083269119262695 -0.7603513598442078 -1.679829478263855 255 255 255
17.896528244018555 1.4414843320846558 -0.25949451327323914 255 255 255
75.64974212646484 -16.100698471069336 2.3181796073913574 255 255 255
53.57866287231445 -9.91246223449707 -0.1801232248544693 255 255 255
14.277815818786621 -1.1731903553009033 -1.5865975618362427 255 255 255
14.316703796386719 -6.8343658447265625 -1.801621675491333 255 255 255
13.645172119140625 -7.671065807342529 0.49436405301094055 255 255 255
11.896096229553223 -7.781111240386963 0.45941251516342163 255 255 255
5.3978118896484375 -3.970346450805664 -0.7807216048240662 255 255 255
9.118889808654785 -2.8603079319000244 -1.6877973079681396 255 255 255
3.477102279663086 2.1823301315307617 -0.22783145308494568 255 255 255
22.154788970947266 -11.474610328674316 -1.0743885040283203 255 255 255
6.576497554779053 4.499763011932373 0.1243755966424942 255 255 255
8.148988723754883 0.3329581618309021 -1.6550898551940918 255 255 255
54.726531982421875 -10.863115310668945 0.7217068672180176 255 255 255
3.4439404010772705 2.277710437774658 -0.1624913215637207 255 255 255
18.729942321777344 5.132856369018555 -0.2418910712003708 255 255 255
13.22283935546875 -0.24495260417461395 -0.7589120864868164 255 255 255
11.528714179992676 -7.635583400726318 0.5955613255500793 255 255 255
13.063553810119629 4.730380058288574 -0.8800075650215149 255 255 255
19.99007797241211 4.641841411590576 0.6856194734573364 255 255 255
11.687948226928711 -0.025296222418546677 -1.584756851196289 255 255 255
6.403288841247559 1.7819961309432983 -1.0437713861465454 255 255 255
16.623682022094727 -9.864468574523926 -0.20967616140842438 255 255 255
19.163055419921875 5.091631889343262 -0.2154892086982727 255 255 255
13.531864166259766 -0.2101755291223526 -1.512370228767395 255 255 255
18.5076904296875 1.0385260581970215 -0.08174722641706467 255 255 255
22.184064865112305 -8.540922164916992 -1.7978769540786743 255 255 255
4.157933235168457 1.9988797903060913 -0.3320223391056061 255 255 255
8.185346603393555 0.37553009390830994 -1.5855547189712524 255 255 255
9.166049003601074 3.531968116760254 -0.38064655661582947 255 255 255
10.521903038024902 -7.84809684753418 0.08013922721147537 255 255 255
21.46063232421875 0.6321407556533813 -0.07702197879552841 255 255 255
13.212057113647461 -0.5856069922447205 -1.4990146160125732 255 255 255
4.17767858505249 1.9248669147491455 -0.42465469241142273 255 255 255
14.666862487792969 8.651320457458496 -0.4050067961215973 255 255 255
3.4905359745025635 2.039594888687134 -0.8434586524963379 255 255 255
7.812867641448975 0.8180000185966492 -1.5960299968719482 255 255 255
5.501564979553223 -3.5080535411834717 -0.41444793343544006 255 255 255
13.142485618591309 -8.522514343261719 0.15163639187812805 255 255 255
5.3085832595825195 -2.923154830932617 -1.4512670040130615 255 255 255
3.453486204147339 2.2125167846679688 -0.5380706787109375 255 255 255
13.972940444946289 -2.756786584854126 -1.617292881011963 255 255 255
11.51287841796875 2.6560192108154297 -0.3778170049190521 255 255 255
15.712677001953125 -2.008892059326172 -1.5847687721252441 255 255 255
6.398575305938721 -1.0090408325195312 -1.7088671922683716 255 255 255
6.694347858428955 1.2994118928909302 -0.6463328003883362 255 255 255
3.538674831390381 2.094862937927246 -0.14836178719997406 255 255 255
23.691211700439453 -4.162875175476074 -1.491744875907898 255 255 255
22.376970291137695 -11.728713989257812 -0.2664843797683716 255 255 255
10.460309028625488 -0.8253210186958313 -1.6740479469299316 255 255 255
18.201677322387695 3.1327414512634277 0.2545296847820282 255 255 255
6.3544392585754395 4.660029411315918 0.28224730491638184 255 255 255
23.732845306396484 -0.6860707402229309 -0.14177089929580688 255 255 255
8.91957950592041 -7.187999725341797 -1.370393991470337 255 255 255
11.772492408752441 -9.191568374633789 0.4974837899208069 255 255 255
8.5427827835083 -2.3020212650299072 -1.7117329835891724 255 255 255
12.71784496307373 -1.7724379301071167 -1.6635328531265259 255 255 255
8.179115295410156 1.0945197343826294 -0.05773187428712845 255 255 255
9.050409317016602 3.4963653087615967 -1.2000974416732788 255 255 255
39.902976989746094 -17.869054794311523 1.667683720588684 255 255 255
18.63375473022461 1.9128389358520508 0.24529825150966644 255 255 255
40.61639404296875 -17.62938117980957 1.2101058959960938 255 255 255
8.706435203552246 -7.189929962158203 -1.178486943244934 255 255 255
8.312102317810059 -1.840950846672058 -1.717800259590149 255 255 255
25.617412567138672 -4.6176228523254395 -1.43751859664917 255 255 255
6.733442783355713 -3.206052303314209 -1.7814695835113525 255 255 255
5.214175701141357 -3.19732403755188 -1.1789287328720093 255 255 255
10.903164863586426 6.015262603759766 0.5946709513664246 255 255 255
46.46123123168945 -15.436236381530762 -1.3687041997909546 255 255 255
43.60226058959961 -4.47030782699585 1.1675822734832764 255 255 255
8.395209312438965 0.7413240671157837 -0.09919486939907074 255 255 255
12.571672439575195 -0.679682731628418 -1.5577630996704102 255 255 255
15.90076732635498 -7.409256458282471 -1.7668863534927368 255 255 255
10.42237663269043 -1.4906889200210571 -1.6366490125656128 255 255 255
6.7838287353515625 0.9056591987609863 -1.563258171081543 255 255 255
8.229928970336914 1.1520107984542847 -0.08994873613119125 255 255 255
13.294462203979492 -1.465149998664856 -1.3760186433792114 255 255 255
16.292654037475586 8.678484916687012 0.014508807100355625 255 255 255
8.383167266845703 -3.4935388565063477 -1.730385422706604 255 255 255
13.65402603149414 6.449521064758301 -0.6211696267127991 255 255 255
13.133686065673828 -8.618857383728027 -0.8561409711837769 255 255 255
6.854462146759033 0.9634321331977844 -0.6594249606132507 255 255 255
7.537344932556152 0.6386146545410156 -1.3578954935073853 255 255 255
16.99292755126953 -5.498834133148193 -1.5985654592514038 255 255 255
3.269279956817627 2.443892240524292 -0.10371942073106766 255 255 255
6.6368536949157715 4.587376117706299 0.28063100576400757 255 255 255
16.151824951171875 -6.340786457061768 -1.7318705320358276 255 255 255
6.614919185638428 0.9372965693473816 -1.289504885673523 255 255 255
7.327093124389648 0.1474088877439499 -1.6855807304382324 255 255 255
13.683817863464355 -0.11277720332145691 -0.26947033405303955 255 255 255
6.453732013702393 4.556970596313477 -0.046906158328056335 255 255 255
8.25094223022461 1.2588253021240234 -0.10793937742710114 255 255 255
6.489506721496582 1.2697051763534546 -0.8940596580505371 255 255 255
27.565786361694336 -2.4542078971862793 -0.11365889757871628 255 255 255
6.645561695098877 4.521268844604492 0.11362173408269882 255 255 255
7.4963884353637695 -3.2527925968170166 -1.7287429571151733 255 255 255
10.559680938720703 2.960031747817993 -0.2180270254611969 255 255 255
11.490194320678711 -7.927499294281006 -0.05332121625542641 255 255 255
7.327073574066162 1.4382691383361816 -1.669477939605713 255 255 255
6.424295425415039 1.8730556964874268 -1.181523323059082 255 255 255
13.983952522277832 -0.9013939499855042 -0.10026184469461441 255 255 255
7.831625461578369 0.5245847702026367 -1.135131597518921 255 255 255
10.317609786987305 -3.9913582801818848 -1.7882537841796875 255 255 255
6.714556694030762 4.498128890991211 0.007909922860562801 255 255 255
5.950483322143555 4.912722110748291 0.21310988068580627 255 255 255
12.657712936401367 -1.3919398784637451 -1.4793310165405273 255 255 255
6.665728569030762 -0.6752111315727234 -1.602184534072876 255 255 255
16.803701400756836 -5.146420001983643 -1.6066163778305054 255 255 255
26.911603927612305 -7.576772212982178 -1.5016019344329834 255 255 255
9.525136947631836 3.5366897583007812 0.4134281575679779 255 255 255
6.315324306488037 1.3236805200576782 -1.1892485618591309 255 255 255
8.515682220458984 -0.6987080574035645 -1.6202317476272583 255 255 255
18.8465576171875 -3.684502601623535 -1.5532019138336182 255 255 255
11.909152030944824 5.365528583526611 -0.8416429758071899 255 255 255
9.767965316772461 -7.87491512298584 -0.42687737941741943 255 255 255
23.202735900878906 -11.930167198181152 -0.3295327126979828 255 255 255
6.6025495529174805 -1.5461604595184326 -1.7175534963607788 255 255 255
27.77029800415039 -2.6508986949920654 -0.04002996161580086 255 255 255
5.069759845733643 -3.4094059467315674 -1.267420768737793 255 255 255
9.408341407775879 4.425092697143555 0.4855467975139618 255 255 255
40.08249282836914 -17.841794967651367 0.8683850765228271 255 255 255
11.495760917663574 -8.499574661254883 0.566364049911499 255 255 255
12.482810974121094 7.6712541580200195 -0.6419126987457275 255 255 255
7.236399173736572 1.829512596130371 -0.5362790822982788 255 255 255
13.88106918334961 6.444666385650635 -0.5568608045578003 255 255 255
11.99230670928955 -2.2431395053863525 -1.716158390045166 255 255 255
10.22321891784668 5.673421382904053 0.21999627351760864 255 255 255
14.59084415435791 -4.736579418182373 -1.7729939222335815 255 255 255
30.0533390045166 -3.925147294998169 -0.3806891441345215 255 255 255
24.323688507080078 -6.228457927703857 -1.52436363697052 255 255 255
6.323162078857422 1.2499737739562988 -1.6740305423736572 255 255 255
6.367347717285156 4.963820457458496 0.41346701979637146 255 255 255
6.934972763061523 -2.1750741004943848 -1.6625254154205322 255 255 255
19.22603988647461 -7.547297477722168 -1.222075343132019 255 255 255
18.371681213378906 1.8741263151168823 0.5028104782104492 255 255 255
6.43578577041626 1.4296770095825195 -1.3514859676361084 255 255 255
6.786445617675781 0.8579075336456299 -1.440311074256897 255 255 255
6.631992340087891 0.8402748703956604 -1.5744901895523071 255 255 255
9.899136543273926 -2.0939114093780518 -1.6917078495025635 255 255 255
6.663669586181641 -0.9890428185462952 -1.687695860862732 255 255 255
10.957173347473145 -9.237237930297852 -0.1694900393486023 255 255 255
8.743081092834473 0.23135003447532654 -1.104287028312683 255 255 255
7.422906398773193 5.981280326843262 0.3359655737876892 255 255 255
8.873566627502441 -7.360653877258301 -0.9124385714530945 255 255 255
5.102536201477051 -3.2525765895843506 -1.0732890367507935 255 255 255
10.0809907913208 -7.567100524902344 -0.15270470082759857 255 255 255
9.049424171447754 -0.04681498557329178 -1.6461831331253052 255 255 255
13.750883102416992 -8.982446670532227 -0.45663192868232727 255 255 255
8.284140586853027 0.5768715739250183 -0.7386969327926636 255 255 255
14.885224342346191 -9.28499698638916 -0.3708352744579315 255 255 255
19.376611709594727 4.943172931671143 -0.3699497580528259 255 255 255
6.932356357574463 4.289800643920898 0.4405665695667267 255 255 255
6.32515287399292 -0.2774524390697479 -1.7753342390060425 255 255 255
13.419965744018555 4.321983337402344 -0.04746308922767639 255 255 255
6.140215873718262 0.6278969645500183 -1.612900972366333 255 255 255
17.54833984375 -10.086431503295898 -1.0080626010894775 255 255 255
18.938512802124023 -8.423185348510742 -1.3355333805084229 255 255 255
13.369274139404297 4.039034366607666 -0.18055647611618042 255 255 255
7.574376583099365 4.452183723449707 0.0056917075999081135 255 255 255
5.3974833488464355 -2.856187105178833 -1.4540302753448486 255 255 255
8.502435684204102 -2.9591431617736816 -1.725529670715332 255 255 255
6.526862144470215 4.69517707824707 0.41292673349380493 255 255 255
21.23845100402832 -0.19815698266029358 0.3473634123802185 255 255 255
70.87374114990234 -18.764314651489258 0.16931863129138947 255 255 255
75.19389343261719 -19.53407096862793 2.021407127380371 255 255 255
20.790346145629883 -10.585580825805664 0.9443691372871399 255 255 255
10.463353157043457 -8.606918334960938 0.25749048590660095 255 255 255
6.521370887756348 1.0941987037658691 -1.036102533340454 255 255 255
6.263438701629639 4.639101028442383 0.16568206250667572 255 255 255
8.600932121276855 3.673015832901001 -1.0669256448745728 255 255 255
17.441186904907227 2.468126058578491 0.22540394961833954 255 255 255
7.3425612449646 4.033914566040039 -0.33861297369003296 255 255 255
12.423799514770508 4.462040424346924 -0.9672538638114929 255 255 255
7.81035041809082 0.6854984164237976 -1.5510706901550293 255 255 255
18.09393310546875 5.363354682922363 0.33053648471832275 255 255 255
20.971525192260742 -3.33286190032959 -1.498587965965271 255 255 255
6.397042751312256 1.5599695444107056 -1.0612800121307373 255 255 255
17.182598114013672 2.6772162914276123 0.4900875389575958 255 255 255
4.493322849273682 1.7614467144012451 -0.974604070186615 255 255 255
11.912627220153809 -4.597128391265869 -1.7451186180114746 255 255 255
16.762088775634766 -3.9660024642944336 -1.6574217081069946 255 255 255
18.232749938964844 5.443751335144043 -0.25087806582450867 255 255 255
15.224812507629395 -3.736170530319214 -1.636078119277954 255 255 255
13.666888236999512 -1.6396336555480957 -1.0389456748962402 255 255 255
13.659371376037598 -7.513062000274658 0.633988618850708 255 255 255
6.5905232429504395 1.2961639165878296 -0.7653508186340332 255 255 255
6.135817527770996 4.7323174476623535 0.05696456879377365 255 255 255
13.539772033691406 4.104759216308594 0.11286509782075882 255 255 255
17.557531356811523 2.687006711959839 0.05507802590727806 255 255 255
20.613815307617188 -11.001194953918457 0.4286613166332245 255 255 255
6.559229850769043 -1.867608666419983 -1.6719207763671875 255 255 255
5.110670566558838 -3.708991527557373 -0.950710117816925 255 255 255
20.891611099243164 -11.939868927001953 -0.21847376227378845 255 255 255
11.469137191772461 -7.807244777679443 0.41714343428611755 255 255 255
20.02581214904785 -5.528710842132568 -1.476119875907898 255 255 255
9.614760398864746 1.2959074974060059 -0.3965073525905609 255 255 255
6.527261257171631 1.6050059795379639 -0.7768389582633972 255 255 255
12.92747974395752 7.269542217254639 -0.42009004950523376 255 255 255
17.886442184448242 1.4520504474639893 -0.20313261449337006 255 255 255
21.381000518798828 4.353560447692871 0.8856116533279419 255 255 255
5.217310905456543 -3.366945743560791 -0.4187489151954651 255 255 255
12.523447036743164 -7.8553619384765625 0.35220402479171753 255 255 255
20.68085289001465 4.503146648406982 -0.46173933148384094 255 255 255
11.023407936096191 -3.214798927307129 -1.5827372074127197 255 255 255
12.239147186279297 -1.0763224363327026 -1.6531003713607788 255 255 255
13.206274032592773 -0.2764098644256592 -1.5586591958999634 255 255 255
8.486665725708008 0.1938888281583786 -0.7913810610771179 255 255 255
28.107696533203125 -10.185245513916016 -1.734726905822754 255 255 255
19.65765380859375 -2.8754191398620605 -1.483833909034729 255 255 255
3.015127658843994 2.2103376388549805 -0.7742551565170288 255 255 255
11.213234901428223 -8.0546236038208 -0.8229364156723022 255 255 255
23.513057708740234 -9.08908462524414 -0.9289035797119141 255 255 255
14.11003303527832 5.928112030029297 -0.724428653717041 255 255 255
6.528608798980713 0.33990591764450073 -1.6246562004089355 255 255 255
6.337536334991455 1.7260301113128662 -0.9960795640945435 255 255 255
10.162893295288086 5.184484481811523 -0.07595237344503403 255 255 255
3.130175828933716 2.351541757583618 -0.24784298241138458 255 255 255
4.04770565032959 1.8454068899154663 -0.860985517501831 255 255 255
5.049262523651123 -3.7703518867492676 -1.2086987495422363 255 255 255
3.6679437160491943 2.0303735733032227 -0.8173691630363464 255 255 255
3.330019950866699 2.0716145038604736 -0.67583167552948 255 255 255
6.322084903717041 -1.3992993831634521 -1.7047033309936523 255 255 255
8.145621299743652 0.4900892972946167 -1.6716835498809814 255 255 255
19.373876571655273 -7.700412750244141 -0.8159821033477783 255 255 255
6.432789325714111 4.901737689971924 0.12132260948419571 255 255 255
7.293254375457764 -2.7429544925689697 -1.694710612297058 255 255 255
13.380356788635254 -5.490994453430176 -1.751288890838623 255 255 255
6.480958938598633 4.626620292663574 0.2640683650970459 255 255 255
75.80956268310547 -15.550508499145508 0.9674807786941528 255 255 255
5.370021820068359 -2.8519480228424072 -1.1371585130691528 255 255 255
12.135507583618164 -0.6943421363830566 -1.5268598794937134 255 255 255
10.813698768615723 -7.69288444519043 0.17537903785705566 255 255 255
8.849443435668945 0.15597014129161835 -0.7251365184783936 255 255 255
4.725750923156738 2.5233209133148193 -0.5593367218971252 255 255 255
6.613015174865723 -1.3904250860214233 -1.6934831142425537 255 255 255
19.687335968017578 -8.160394668579102 -0.42824670672416687 255 255 255
18.401880264282227 2.3635995388031006 0.013529688119888306 255 255 255
9.310426712036133 -7.517065525054932 -0.8208867907524109 255 255 255
16.597917556762695 -2.6116771697998047 -1.578129529953003 255 255 255
3.5767405033111572 2.1102089881896973 -0.7777600884437561 255 255 255
12.966081619262695 -1.0587897300720215 -0.897328794002533 255 255 255
14.735840797424316 -5.787571430206299 -1.763791561126709 255 255 255
15.818074226379395 7.119772434234619 -0.10821326822042465 255 255 255
8.04191780090332 0.6088100075721741 -1.2243764400482178 255 255 255
6.667874336242676 4.653233528137207 0.3980230987071991 255 255 255
12.807706832885742 -2.395322799682617 -1.6529526710510254 255 255 255
21.088468551635742 0.20008563995361328 -0.11767265200614929 255 255 255
3.9826204776763916 1.834376573562622 -0.7907096147537231 255 255 255
17.73944854736328 5.471858978271484 0.7530031800270081 255 255 255
11.730934143066406 -0.5552639365196228 -1.5954818725585938 255 255 255
4.9230265617370605 -3.902944564819336 -1.1202809810638428 255 255 255
4.528118133544922 1.7530962228775024 -1.0205564498901367 255 255 255
9.882100105285645 -3.304835796356201 -1.7501578330993652 255 255 255
7.504875183105469 -1.9648518562316895 -1.6251710653305054 255 255 255
8.571102142333984 3.5767154693603516 -0.9029363393783569 255 255 255
10.45394229888916 -2.2626030445098877 -1.7394921779632568 255 255 255
12.719040870666504 -4.330879211425781 -1.6360975503921509 255 255 255
8.827908515930176 -7.456925868988037 -0.4667587876319885 255 255 255
34.27890396118164 -5.311807632446289 -0.7235615253448486 255 255 255
13.29710578918457 -2.0411155223846436 -1.606317400932312 255 255 255
12.923524856567383 4.186826705932617 -0.6300809979438782 255 255 255
3.834726572036743 2.1163082122802734 -0.26449713110923767 255 255 255
6.460786819458008 1.103122591972351 -1.5748422145843506 255 255 255
20.59739875793457 -10.785296440124512 0.270495742559433 255 255 255
6.619949817657471 -0.2442072182893753 -1.6890770196914673 255 255 255
12.37244701385498 4.4552531242370605 -0.9124557375907898 255 255 255
3.7074904441833496 2.0806546211242676 -0.2402445375919342 255 255 255
13.204333305358887 4.539219379425049 -0.7486667633056641 255 255 255
13.026293754577637 8.111367225646973 -0.5395330786705017 255 255 255
9.140789031982422 0.23737238347530365 -0.424180805683136 255 255 255
7.37249231338501 -2.8145289421081543 -1.7914117574691772 255 255 255
35.69381332397461 -11.045330047607422 -1.5376781225204468 255 255 255
5.077009201049805 -3.153629779815674 -1.43013596534729 255 255 255
7.3552632331848145 0.4596312642097473 -0.7390709519386292 255 255 255
12.244091987609863 -5.4379353523254395 -1.7600497007369995 255 255 255
18.922069549560547 -8.278878211975098 -0.7890200614929199 255 255 255
31.571334838867188 -7.3207926750183105 -1.3640474081039429 255 255 255
3.085923910140991 2.422212600708008 -0.2890951633453369 255 255 255
12.456743240356445 7.89061975479126 -0.6361526846885681 255 255 255
4.43509578704834 1.7381926774978638 -1.0473506450653076 255 255 255
20.882953643798828 -10.667497634887695 0.9430155158042908 255 255 255
4.766376495361328 1.727220058441162 -0.7280161380767822 255 255 255
4.343484878540039 2.305454730987549 -0.7669844627380371 255 255 255
13.592264175415039 -8.906464576721191 -0.5901950597763062 255 255 255
6.774143695831299 0.9079182147979736 -1.4054076671600342 255 255 255
7.457350730895996 -6.2646260261535645 -1.827260971069336 255 255 255
13.134292602539062 -0.24756015837192535 -0.9873595237731934 255 255 255
13.842363357543945 -8.995460510253906 -0.6903215050697327 255 255 255
20.830402374267578 -11.16504955291748 0.6327236890792847 255 255 255
14.256772994995117 4.130545139312744 -0.8990060687065125 255 255 255
17.63490867614746 5.544062614440918 0.22160713374614716 255 255 255
6.475285053253174 1.3090040683746338 -0.8576503992080688 255 255 255
15.160402297973633 -2.8354015350341797 -1.621095895767212 255 255 255
15.463239669799805 -5.923730850219727 -1.7260910272598267 255 255 255
10.227821350097656 -0.037565022706985474 -1.5873533487319946 255 255 255
14.502540588378906 -2.626779317855835 -1.5968010425567627 255 255 255
6.534407138824463 1.0664646625518799 -1.0035449266433716 255 255 255
22.490127563476562 -11.344883918762207 -0.12910202145576477 255 255 255
6.716832160949707 1.912090539932251 -0.7703155875205994 255 255 255
6.564349174499512 -0.36532461643218994 -1.6291940212249756 255 255 255
13.990972518920898 -0.47618988156318665 -0.20153096318244934 255 255 255
7.033663272857666 0.8175063729286194 -0.9690028429031372 255 255 255
12.891277313232422 -3.179072380065918 -1.7087653875350952 255 255 255
3.056884765625 2.2857511043548584 -0.2608586549758911 255 255 255
7.311686038970947 1.8126039505004883 -0.5592036247253418 255 255 255
14.539788246154785 -3.5476906299591064 -1.5895999670028687 255 255 255
6.616514205932617 4.577681064605713 -0.2089310735464096 255 255 255
6.7512431144714355 4.345072269439697 0.01864168420433998 255 255 255
4.914310455322266 -3.5322060585021973 -1.3225561380386353 255 255 255
3.7806270122528076 2.1293182373046875 -0.23255716264247894 255 255 255
15.28615665435791 -5.08082389831543 -1.6377556324005127 255 255 255
16.08946418762207 4.316394805908203 -0.7896108627319336 255 255 255
5.859997749328613 -3.1987898349761963 -0.3455491065979004 255 255 255
8.121929168701172 0.6757703423500061 -0.6358380317687988 255 255 255
19.247365951538086 -8.371821403503418 -0.2897537052631378 255 255 255
53.60459518432617 -16.694164276123047 -0.6250265836715698 255 255 255
6.604454040527344 1.8094680309295654 -0.9211598634719849 255 255 255
6.943296909332275 0.8261523842811584 -0.7185769081115723 255 255 255
16.682315826416016 -2.8504421710968018 -1.505926251411438 255 255 255
6.398606777191162 1.0995006561279297 -1.1410950422286987 255 255 255
21.898759841918945 -11.667415618896484 -0.41757380962371826 255 255 255
10.220293045043945 3.4030191898345947 0.3561343848705292 255 255 255
7.916993141174316 6.0456624031066895 -0.14214542508125305 255 255 255
17.967456817626953 -10.171414375305176 -1.346065878868103 255 255 255
13.171703338623047 -1.2952709197998047 -1.1126190423965454 255 255 255
6.541459560394287 5.019891262054443 -0.21607904136180878 255 255 255
18.2987003326416 5.27588415145874 0.9068163633346558 255 255 255
13.395939826965332 -3.6250078678131104 -1.6867823600769043 255 255 255
3.3053462505340576 2.2703499794006348 -0.1951363980770111 255 255 255
9.743807792663574 -4.108204364776611 -1.7586655616760254 255 255 255
6.309105396270752 -1.758368968963623 -1.679184079170227 255 255 255
12.965982437133789 4.48291015625 -0.3392378091812134 255 255 255
2.9718174934387207 2.23291277885437 -0.7600126266479492 255 255 255
6.495633602142334 1.8757436275482178 -1.3084744215011597 255 255 255
8.120205879211426 -1.3477258682250977 -1.675612449645996 255 255 255
13.654739379882812 6.456798553466797 -0.6992797255516052 255 255 255
18.630659103393555 5.1969194412231445 0.4068756103515625 255 255 255
4.166457176208496 1.7650799751281738 -0.8637136816978455 255 255 255
11.932683944702148 -3.7840232849121094 -1.7263356447219849 255 255 255
9.521553039550781 -2.5123720169067383 -1.7045825719833374 255 255 255
6.870930194854736 1.722667932510376 -0.6288377642631531 255 255 255
14.572077751159668 -4.596441268920898 -1.66499662399292 255 255 255
20.308380126953125 -10.902443885803223 0.6686537265777588 255 255 255
5.199245452880859 -3.0768074989318848 -0.9187628626823425 255 255 255
7.396997928619385 -3.1155905723571777 -1.791488766670227 255 255 255
8.584080696105957 -1.8130887746810913 -1.741512656211853 255 255 255
12.905638694763184 -1.1265449523925781 -0.6557969450950623 255 255 255
9.001131057739258 -7.536810398101807 -0.4534485638141632 255 255 255
15.829551696777344 6.156424045562744 -0.15433037281036377 255 255 255
13.034980773925781 -0.5224753618240356 -0.566093921661377 255 255 255
55.34602355957031 -8.524574279785156 1.3599625825881958 255 255 255
5.335391998291016 -2.913853645324707 -1.3192808628082275 255 255 255
18.032997131347656 5.466818809509277 0.39500635862350464 255 255 255
3.709956407546997 2.041290044784546 -0.7706483006477356 255 255 255
19.855667114257812 4.745317459106445 0.48590144515037537 255 255 255
3.4996793270111084 2.1799838542938232 -0.30357977747917175 255 255 255
5.0570244789123535 -3.188154458999634 -1.387021780014038 255 255 255
8.427465438842773 -7.038767337799072 -1.3765051364898682 255 255 255
9.769075393676758 -3.8970184326171875 -1.7541452646255493 255 255 255
6.63714599609375 1.7603317499160767 -1.6036149263381958 255 255 255
21.86984634399414 4.220810413360596 0.21567827463150024 255 255 255
11.438036918640137 -7.685952186584473 0.2054234892129898 255 255 255
9.425148963928223 -3.9263339042663574 -1.7646989822387695 255 255 255
3.4690802097320557 2.205665111541748 -0.24824722111225128 255 255 255
9.319034576416016 3.4748756885528564 0.4918152391910553 255 255 255
6.499022960662842 4.682693004608154 -0.24097713828086853 255 255 255
21.31777572631836 -0.5250129103660583 0.7325012683868408 255 255 255
5.102402687072754 -3.7698066234588623 -1.1007180213928223 255 255 255
5.412332534790039 -4.035025596618652 -0.426305890083313 255 255 255
41.01026153564453 -17.647705078125 0.3736341595649719 255 255 255
17.85354232788086 1.6408746242523193 -0.20402482151985168 255 255 255
6.786398410797119 1.0744786262512207 -0.6995514631271362 255 255 255
13.339614868164062 -5.442142486572266 -1.7185912132263184 255 255 255
14.64394760131836 -9.177277565002441 -0.40366455912590027 255 255 255
3.1306307315826416 2.2375590801239014 -0.8144568800926208 255 255 255
7.297941207885742 0.6497006416320801 -0.7046958804130554 255 255 255
19.521333694458008 -8.227416038513184 -1.7028355598449707 255 255 255
20.541364669799805 -11.522790908813477 0.4133007228374481 255 255 255
15.819920539855957 4.639052391052246 -0.8716563582420349 255 255 255
12.717708587646484 -1.361093282699585 -1.6593228578567505 255 255 255
6.617180347442627 0.8921142220497131 -1.0470221042633057 255 255 255
5.247119426727295 -3.009700298309326 -1.2956581115722656 255 255 255
7.172834873199463 4.240111351013184 0.027302831411361694 255 255 255
5.026656627655029 -3.7130987644195557 -0.8980940580368042 255 255 255
6.743950843811035 -3.309415578842163 -1.4792392253875732 255 255 255
11.77527904510498 -5.018806457519531 -1.7682909965515137 255 255 255
3.2691633701324463 2.135615110397339 -0.7276551127433777 255 255 255
9.233725547790527 3.3195698261260986 -0.8124276995658875 255 255 255
