ply
format ascii 1.0
element vertex 691
property float x
property float y
property float z
property uchar red
property uchar green
property uchar blue
end_header
12.985400199890137 -0.7052510976791382 -1.1242200136184692 255 255 255
6.834630489349365 5.125291347503662 0.09672825783491135 255 255 255
19.022823333740234 -8.084683418273926 -1.4973833560943604 255 255 255
3.8916678428649902 1.966860055923462 -0.8382658958435059 255 255 255
9.855892181396484 -7.4342942237854 -0.07494622468948364 255 255 255
6.7137770652771 0.9933705925941467 -1.1401017904281616 255 255 255
4.485773086547852 1.707190990447998 -0.7582124471664429 255 255 255
5.382688999176025 -3.687459707260132 -0.807288408279419 255 255 255
12.526659965515137 -7.2428154945373535 0.6986097097396851 255 255 255
6.025888442993164 -2.904003381729126 -1.3685415983200073 255 255 255
19.17251968383789 -10.294829368591309 -0.7389594912528992 255 255 255
19.439470291137695 4.994833946228027 -0.27182966470718384 255 255 255
3.5222575664520264 2.202770233154297 -0.41253870725631714 255 255 255
5.217085361480713 -3.0187551975250244 -1.3311126232147217 255 255 255
3.689260244369507 1.9992413520812988 -1.000829815864563 255 255 255
19.894412994384766 -3.352731704711914 -1.547784447669983 255 255 255
30.483198165893555 -3.7921319007873535 -0.038016293197870255 255 255 255
26.440771102905273 -5.516465663909912 -1.4944790601730347 255 255 255
21.00682258605957 0.3604394197463989 0.06912266463041306 255 255 255
21.875032424926758 1.3102973699569702 0.44665277004241943 255 255 255
9.843104362487793 -3.957768678665161 -1.6456997394561768 255 255 255
15.697513580322266 -8.907238006591797 0.3061094582080841 255 255 255
5.379143238067627 -2.739687442779541 -1.491988182067871 255 255 255
19.13860511779785 -8.074504852294922 -0.9609230160713196 255 255 255
12.868242263793945 4.210402488708496 0.5597668290138245 255 255 255
8.473234176635742 -2.6264963150024414 -1.7094495296478271 255 255 255
7.304226875305176 -3.5081844329833984 -1.7508443593978882 255 255 255
54.98358917236328 -22.56451416015625 1.0793269872665405 255 255 255
15.021286010742188 -1.7893906831741333 -1.576962947845459 255 255 255
8.507692337036133 0.2078307569026947 -1.6027194261550903 255 255 255
8.715139389038086 1.3974577188491821 -0.5910201668739319 255 255 255
12.216424942016602 -5.457465648651123 -1.8808238506317139 255 255 255
4.956106662750244 1.6951225996017456 -0.7124345898628235 255 255 255
54.516822814941406 -6.766414165496826 2.1298415660858154 255 255 255
14.33602523803711 -9.465851783752441 -0.09547049552202225 255 255 255
7.090840816497803 4.256589412689209 0.028477385640144348 255 255 255
16.22080421447754 -9.445053100585938 -0.9438319206237793 255 255 255
52.51504898071289 -15.04697322845459 -1.237401008605957 255 255 255
14.19156265258789 -1.602433204650879 -1.0691901445388794 255 255 255
16.668676376342773 -9.692877769470215 -0.47796952724456787 255 255 255
13.476184844970703 -4.265102863311768 -1.7124171257019043 255 255 255
24.146047592163086 -12.076812744140625 -0.6277661919593811 255 255 255
7.938418865203857 -2.2722690105438232 -1.6545863151550293 255 255 255
10.293675422668457 3.675572633743286 0.029288021847605705 255 255 255
12.389864921569824 -4.007086753845215 -1.7159892320632935 255 255 255
17.741151809692383 -3.4796650409698486 -1.5245685577392578 255 255 255
10.575923919677734 -7.872866630554199 -0.25427404046058655 255 255 255
8.917600631713867 0.20010757446289062 -1.6173017024993896 255 255 255
14.0150146484375 -3.148594856262207 -1.6860493421554565 255 255 255
13.31971263885498 -1.3571580648422241 -0.5898670554161072 255 255 255
10.227642059326172 5.820659160614014 0.006208013743162155 255 255 255
9.131611824035645 3.622763156890869 -0.6952692270278931 255 255 255
19.6292667388916 -11.06406021118164 0.07868046313524246 255 255 255
8.815786361694336 1.448594570159912 -0.5192418098449707 255 255 255
17.534454345703125 2.4292402267456055 0.6361321210861206 255 255 255
27.61470603942871 -2.450826406478882 -0.3942301869392395 255 255 255
11.744634628295898 -5.099773406982422 -1.8501343727111816 255 255 255
13.843087196350098 8.426979064941406 -0.35651111602783203 255 255 255
6.572948932647705 1.2296440601348877 -0.8577631711959839 255 255 255
7.188631057739258 1.4568365812301636 -1.5611679553985596 255 255 255
42.491825103759766 -15.361754417419434 -1.4980679750442505 255 255 255
7.311607360839844 0.8379519581794739 -1.1503944396972656 255 255 255
7.9393630027771 0.0734163224697113 -1.647347092628479 255 255 255
25.303525924682617 -8.469891548156738 -1.5900077819824219 255 255 255
12.963626861572266 -8.390202522277832 -0.9319149851799011 255 255 255
5.27799654006958 -2.8424599170684814 -1.0997278690338135 255 255 255
10.437445640563965 -0.9027995467185974 -1.591267466545105 255 255 255
18.966907501220703 5.144125461578369 0.6469128131866455 255 255 255
8.607799530029297 3.528327703475952 -0.9633885025978088 255 255 255
9.358784675598145 0.26866036653518677 -0.3055557906627655 255 255 255
9.986109733581543 -1.97233247756958 -1.72249174118042 255 255 255
9.618122100830078 3.8072757720947266 0.22015783190727234 255 255 255
5.967485427856445 4.765290260314941 -0.027860276401042938 255 255 255
21.870464324951172 -11.684714317321777 0.1702233999967575 255 255 255
54.57635498046875 -22.530597686767578 1.8285651206970215 255 255 255
6.956247329711914 1.8075037002563477 -1.4889856576919556 255 255 255
18.26036834716797 -10.263307571411133 -0.7160766124725342 255 255 255
7.812591552734375 -3.4116604328155518 -1.725246548652649 255 255 255
14.561668395996094 -9.382756233215332 0.01345683354884386 255 255 255
10.781499862670898 -7.856449604034424 -0.4000381827354431 255 255 255
29.31973648071289 -7.943209648132324 -1.5468690395355225 255 255 255
5.162851810455322 -3.861589193344116 -0.8483955264091492 255 255 255
17.9686222076416 5.587246894836426 0.6227030754089355 255 255 255
13.339673042297363 -8.799840927124023 -0.7118685245513916 255 255 255
8.395833015441895 -7.04259729385376 -1.1105782985687256 255 255 255
9.178942680358887 -2.8012595176696777 -1.6757516860961914 255 255 255
6.777684211730957 1.2704623937606812 -0.6977105736732483 255 255 255
8.268102645874023 -0.8662379384040833 -1.6896870136260986 255 255 255
6.371814727783203 1.635331392288208 -0.9077863097190857 255 255 255
53.503448486328125 -15.663947105407715 -0.2350379228591919 255 255 255
11.575732231140137 5.179835796356201 -0.890594482421875 255 255 255
8.004111289978027 -1.7647982835769653 -1.6776330471038818 255 255 255
12.465166091918945 -7.9952473640441895 0.50364750623703 255 255 255
6.516937732696533 1.2354711294174194 -1.6930100917816162 255 255 255
30.641674041748047 -6.215348720550537 -1.3707464933395386 255 255 255
12.359824180603027 -4.757824897766113 -1.713315486907959 255 255 255
10.280163764953613 5.241885185241699 -0.07171771675348282 255 255 255
6.488070487976074 4.880338668823242 -0.030816491693258286 255 255 255
7.289615154266357 -3.393705129623413 -1.5757460594177246 255 255 255
9.772977828979492 3.821981191635132 0.4955507516860962 255 255 255
5.78646183013916 -3.230837106704712 -0.4694928526878357 255 255 255
3.366997718811035 2.3530242443084717 -0.18117812275886536 255 255 255
8.687004089355469 1.1996850967407227 -0.3283326029777527 255 255 255
11.760201454162598 4.424587726593018 -1.0099196434020996 255 255 255
75.10865020751953 -18.311368942260742 2.760631561279297 255 255 255
6.775197982788086 4.54327392578125 0.4450162947177887 255 255 255
6.915807723999023 0.818625807762146 -1.6199098825454712 255 255 255
6.518265247344971 1.15558922290802 -1.2821052074432373 255 255 255
4.254348278045654 1.8231159448623657 -0.9717811942100525 255 255 255
12.801459312438965 4.866691589355469 -0.7817504405975342 255 255 255
20.84953498840332 -8.278058052062988 -1.8208081722259521 255 255 255
15.081096649169922 -3.408243179321289 -1.622738003730774 255 255 255
5.171731948852539 -3.141545295715332 -1.193709135055542 255 255 255
15.97616195678711 6.279706954956055 -0.5403210520744324 255 255 255
7.928483486175537 1.31192147731781 -0.13966330885887146 255 255 255
3.0434138774871826 2.236083507537842 -0.7234455943107605 255 255 255
5.189798831939697 -3.6134989261627197 -0.5004815459251404 255 255 255
15.777846336364746 6.272365093231201 0.10544627159833908 255 255 255
13.126670837402344 4.046034812927246 -0.374340295791626 255 255 255
6.908960342407227 4.333352565765381 0.13905653357505798 255 255 255
6.003749847412109 4.908052444458008 -0.12303377687931061 255 255 255
15.3153715133667 3.301234006881714 -0.09144124388694763 255 255 255
6.462565898895264 4.57901668548584 0.5389635562896729 255 255 255
6.526362895965576 -2.359257936477661 -1.7512071132659912 255 255 255
3.761347770690918 1.9531209468841553 -0.9828815460205078 255 255 255
6.863762855529785 4.348674774169922 0.3347334861755371 255 255 255
33.44805908203125 -15.831172943115234 -0.2862136960029602 255 255 255
6.461733341217041 4.605247497558594 -0.048713285475969315 255 255 255
6.312686920166016 4.703452110290527 0.28978779911994934 255 255 255
7.505901336669922 -0.5954875946044922 -1.725622534751892 255 255 255
27.939533233642578 -1.3201054334640503 -0.25449901819229126 255 255 255
13.722783088684082 -0.1608438342809677 -0.29644036293029785 255 255 255
6.926120758056641 2.3761391639709473 -0.9478504657745361 255 255 255
12.296274185180664 -1.5576156377792358 -1.5972461700439453 255 255 255
8.209117889404297 0.5292932987213135 -0.7182946801185608 255 255 255
10.30927848815918 3.232245445251465 -0.7446290254592896 255 255 255
14.71689510345459 -7.69656229019165 0.718651533126831 255 255 255
3.6738979816436768 2.0327134132385254 -0.9041711688041687 255 255 255
4.905702114105225 1.596213936805725 -1.214310646057129 255 255 255
8.356464385986328 4.046071529388428 -0.8537819981575012 255 255 255
10.285581588745117 5.408592224121094 -0.5998945832252502 255 255 255
9.566511154174805 4.441883563995361 0.3781316578388214 255 255 255
7.520817756652832 -1.3457781076431274 -1.6688377857208252 255 255 255
9.60943603515625 5.229950904846191 0.502249538898468 255 255 255
3.3800432682037354 2.14865779876709 -0.792351245880127 255 255 255
7.478270530700684 0.23257865011692047 -1.6400834321975708 255 255 255
15.131868362426758 -3.4710116386413574 -1.5858289003372192 255 255 255
32.20209884643555 -4.24385404586792 -0.8568397760391235 255 255 255
11.771595001220703 -0.7435865998268127 -1.5682461261749268 255 255 255
6.707728862762451 1.633795976638794 -0.6978971362113953 255 255 255
9.119906425476074 4.803687572479248 0.44899070262908936 255 255 255
10.29861068725586 4.614773750305176 0.5083097815513611 255 255 255
9.703139305114746 -7.531132221221924 -0.02158249169588089 255 255 255
19.33949851989746 -8.254240989685059 -0.7204280495643616 255 255 255
20.762475967407227 4.593637466430664 -0.6019551753997803 255 255 255
12.89335823059082 -8.536504745483398 -0.47391825914382935 255 255 255
14.406896591186523 -9.132386207580566 -0.23558881878852844 255 255 255
15.440200805664062 -2.1192994117736816 -0.9706375598907471 255 255 255
6.397224426269531 4.775635719299316 -0.008523079566657543 255 255 255
5.168538570404053 -3.075101137161255 -1.3606420755386353 255 255 255
23.424890518188477 -11.667126655578613 -1.286133885383606 255 255 255
10.368905067443848 5.657314777374268 -0.6611459851264954 255 255 255
6.899326801300049 -2.321995496749878 -1.7051104307174683 255 255 255
12.647807121276855 -7.7027997970581055 0.6429749131202698 255 255 255
7.200780391693115 1.0943223237991333 -1.6114333868026733 255 255 255
7.097218036651611 4.3477325439453125 -0.18166720867156982 255 255 255
10.302395820617676 -8.293545722961426 -0.46817272901535034 255 255 255
20.992347717285156 -11.767753601074219 -0.10383020341396332 255 255 255
13.788237571716309 4.254029750823975 -0.6268323659896851 255 255 255
8.632023811340332 -1.112775444984436 -1.6424301862716675 255 255 255
54.522247314453125 -6.460878372192383 0.41450658440589905 255 255 255
22.983871459960938 -5.781327247619629 -1.545957326889038 255 255 255
21.0602970123291 0.16874517500400543 0.6531957983970642 255 255 255
18.199827194213867 -10.214747428894043 -0.6614108085632324 255 255 255
9.036205291748047 0.15397924184799194 -1.6322555541992188 255 255 255
11.56033992767334 -8.113014221191406 -0.6818081140518188 255 255 255
26.70384979248047 -4.20728063583374 -1.2922515869140625 255 255 255
3.068303346633911 2.3240396976470947 -0.17084380984306335 255 255 255
9.390347480773926 -7.63262939453125 0.024951452389359474 255 255 255
10.5609712600708 3.0489399433135986 -0.4904584586620331 255 255 255
29.92056655883789 -3.6534435749053955 -0.5858829021453857 255 255 255
6.940104961395264 0.7781832218170166 -0.9545791745185852 255 255 255
5.1509552001953125 -3.265943765640259 -1.2291477918624878 255 255 255
5.915002346038818 4.832421779632568 -0.12026932835578918 255 255 255
5.041749954223633 -3.6079821586608887 -0.81900554895401 255 255 255
3.3004748821258545 2.5708260536193848 -0.13442854583263397 255 255 255
13.074470520019531 -0.48678314685821533 -0.7284883260726929 255 255 255
17.462726593017578 2.9534614086151123 -0.2178841531276703 255 255 255
10.797065734863281 -8.122859001159668 0.7054229378700256 255 255 255
13.979988098144531 -8.731637001037598 -1.027505874633789 255 255 255
21.44968605041504 0.4142177999019623 0.6858479380607605 255 255 255
19.730178833007812 4.844100475311279 -0.049659278243780136 255 255 255
7.914750099182129 -3.505786895751953 -1.2948766946792603 255 255 255
10.8203763961792 -4.5405168533325195 -1.7344306707382202 255 255 255
41.590824127197266 -14.319931983947754 -1.5479294061660767 255 255 255
15.74901294708252 7.643800258636475 -0.24710674583911896 255 255 255
8.872406005859375 -7.0995635986328125 -1.0079569816589355 255 255 255
9.002514839172363 3.608464241027832 -0.7739711403846741 255 255 255
14.239480972290039 8.218091011047363 -0.32587459683418274 255 255 255
5.18070650100708 -3.5964515209198 -0.49799004197120667 255 255 255
4.433451175689697 1.8058199882507324 -0.8496291041374207 255 255 255
9.755945205688477 3.207160711288452 -0.9603303074836731 255 255 255
11.702110290527344 4.942058563232422 -0.9007024168968201 255 255 255
20.650909423828125 -9.178154945373535 -1.6797820329666138 255 255 255
70.85906219482422 -25.564090728759766 0.01384078711271286 255 255 255
8.617135047912598 -1.9045381546020508 -1.7786970138549805 255 255 255
4.9073967933654785 -3.8784494400024414 -1.246338963508606 255 255 255
14.145956993103027 6.352511405944824 -0.6683198809623718 255 255 255
7.708705902099609 -3.5201237201690674 -1.7510077953338623 255 255 255
4.8118109703063965 1.716261625289917 -0.8989216685295105 255 255 255
5.290712833404541 -2.933037281036377 -1.1512806415557861 255 255 255
6.459855556488037 4.800841331481934 -0.09972488135099411 255 255 255
3.57650089263916 2.088369131088257 -0.9312486052513123 255 255 255
20.577796936035156 -9.884392738342285 -1.829763412475586 255 255 255
10.20748233795166 3.8194291591644287 -0.24730193614959717 255 255 255
12.772098541259766 -8.541096687316895 -0.6804216504096985 255 255 255
24.159433364868164 -4.927891254425049 -1.5784207582473755 255 255 255
3.340588331222534 2.4345078468322754 -0.15826360881328583 255 255 255
13.543764114379883 -7.923622131347656 0.46870318055152893 255 255 255
10.04214859008789 5.3538336753845215 0.1421101689338684 255 255 255
14.1618070602417 5.850709438323975 -0.778637170791626 255 255 255
6.463817119598389 1.6438188552856445 -0.8255544304847717 255 255 255
15.3540620803833 -5.8058600425720215 -1.7488510608673096 255 255 255
29.37978172302246 -8.214320182800293 -1.5532180070877075 255 255 255
15.558024406433105 5.015874862670898 -0.7960110306739807 255 255 255
5.228782653808594 -2.8840367794036865 -1.2428534030914307 255 255 255
3.455127000808716 2.054151773452759 -0.8517714142799377 255 255 255
19.876855850219727 4.9602484703063965 0.1190517395734787 255 255 255
6.518585681915283 4.625583648681641 0.02210499905049801 255 255 255
3.419739007949829 2.2571563720703125 -0.18930913507938385 255 255 255
8.500908851623535 3.6321983337402344 -0.8382518887519836 255 255 255
12.905319213867188 -8.101336479187012 0.6563196778297424 255 255 255
13.519315719604492 4.227603912353516 0.36427730321884155 255 255 255
7.214719295501709 0.837058961391449 -1.2404851913452148 255 255 255
13.844759941101074 -7.458670616149902 0.6839861869812012 255 255 255
6.395988464355469 1.229889154434204 -1.5629462003707886 255 255 255
6.3607025146484375 4.780296802520752 -0.11380372196435928 255 255 255
14.54465103149414 -1.7470703125 -1.051340937614441 255 255 255
13.569616317749023 -8.048927307128906 0.3749193549156189 255 255 255
8.325431823730469 -2.067417621612549 -1.6557633876800537 255 255 255
7.842651844024658 6.078230381011963 0.07906734943389893 255 255 255
17.409807205200195 2.719212293624878 0.24965159595012665 255 255 255
33.64682388305664 -7.065780162811279 -1.3020910024642944 255 255 255
21.75893783569336 4.426629543304443 -0.10734730958938599 255 255 255
5.107438087463379 -3.110987424850464 -1.2294626235961914 255 255 255
15.426977157592773 -8.893118858337402 0.23228707909584045 255 255 255
11.883766174316406 -4.95440673828125 -1.8378617763519287 255 255 255
6.417908191680908 1.4975688457489014 -0.7870954275131226 255 255 255
4.362530708312988 1.9533438682556152 -0.4678955674171448 255 255 255
7.890084743499756 0.2466234564781189 -1.6266244649887085 255 255 255
18.20648193359375 5.082484722137451 -0.7924259305000305 255 255 255
21.641687393188477 0.7843347191810608 -0.24469777941703796 255 255 255
7.192278861999512 -1.1086608171463013 -1.6912626028060913 255 255 255
20.329727172851562 -10.435022354125977 0.8190022110939026 255 255 255
14.454371452331543 -0.7667447328567505 -1.481091022491455 255 255 255
8.281283378601074 0.9589620232582092 -0.08299008756875992 255 255 255
3.004009962081909 2.278942823410034 -0.8615224957466125 255 255 255
14.020635604858398 6.556933879852295 -0.4196057617664337 255 255 255
6.85843563079834 -3.1221892833709717 -1.7956966161727905 255 255 255
39.57158279418945 -10.688319206237793 -1.4554871320724487 255 255 255
20.184206008911133 4.832005977630615 -0.6840556263923645 255 255 255
3.2634119987487793 2.314915180206299 -0.15871822834014893 255 255 255
12.832432746887207 -3.742643356323242 -1.6358821392059326 255 255 255
13.216531753540039 4.5527167320251465 -0.24248220026493073 255 255 255
13.942602157592773 -3.084135055541992 -1.6058682203292847 255 255 255
12.636405944824219 -8.320136070251465 -0.8932723999023438 255 255 255
10.9186372756958 -7.998083114624023 -0.6759395003318787 255 255 255
75.49815368652344 -15.633282661437988 1.0727317333221436 255 255 255
5.198988914489746 -3.458118200302124 -1.264073133468628 255 255 255
40.62671661376953 -12.76119327545166 -1.392093539237976 255 255 255
9.545088768005371 3.4656667709350586 -0.7554240822792053 255 255 255
15.328535079956055 -4.452098846435547 -1.651450753211975 255 255 255
9.541866302490234 3.2762227058410645 -0.9278967976570129 255 255 255
6.177938461303711 0.6174555420875549 -1.6893539428710938 255 255 255
14.684664726257324 -7.798956394195557 0.7701285481452942 255 255 255
3.86576509475708 2.008972644805908 -0.928139865398407 255 255 255
9.828609466552734 3.6861438751220703 0.5009146332740784 255 255 255
10.130044937133789 5.048765182495117 -0.023687399923801422 255 255 255
8.362571716308594 -2.01920485496521 -1.7659049034118652 255 255 255
9.024373054504395 0.1140349879860878 -0.7356793284416199 255 255 255
6.380622863769531 1.1409529447555542 -1.286214828491211 255 255 255
8.193010330200195 0.6257463693618774 -0.6961910128593445 255 255 255
5.108300685882568 -3.3240771293640137 -0.8029055595397949 255 255 255
67.94247436523438 -11.985895156860352 1.2866332530975342 255 255 255
5.225155830383301 -3.024026870727539 -1.270862340927124 255 255 255
6.767967224121094 1.007433533668518 -1.4938706159591675 255 255 255
13.176097869873047 -0.0011116419918835163 -1.0956519842147827 255 255 255
24.427284240722656 -9.073539733886719 -0.4083121716976166 255 255 255
4.425840854644775 2.5049102306365967 -0.7391560673713684 255 255 255
2.8844165802001953 2.343311309814453 -0.7981979846954346 255 255 255
5.042473793029785 1.6197131872177124 -1.0248324871063232 255 255 255
6.5659685134887695 -2.925494909286499 -1.7596665620803833 255 255 255
21.093791961669922 -10.355857849121094 0.1761091649532318 255 255 255
12.59561538696289 -8.458667755126953 -0.7614638209342957 255 255 255
9.316102027893066 -4.1752190589904785 -1.7363442182540894 255 255 255
19.06364631652832 -10.477777481079102 -0.9341768026351929 255 255 255
14.073128700256348 -7.376445293426514 0.8118867874145508 255 255 255
6.847859859466553 -0.12016358971595764 -1.8052117824554443 255 255 255
5.079704284667969 -3.912771701812744 -0.9751964807510376 255 255 255
40.67436599731445 -7.209654808044434 -0.33573633432388306 255 255 255
3.336285352706909 2.162029266357422 -0.5629221200942993 255 255 255
18.78431510925293 5.335782051086426 0.19601546227931976 255 255 255
2.931462526321411 2.396322011947632 -0.18484808504581451 255 255 255
12.71915340423584 -7.883594036102295 0.5710290670394897 255 255 255
18.293394088745117 1.242047667503357 -0.34450042247772217 255 255 255
9.368690490722656 1.018911361694336 -0.4363235831260681 255 255 255
17.664743423461914 -3.4867093563079834 -1.573159098625183 255 255 255
9.594979286193848 -1.6047807931900024 -1.5803842544555664 255 255 255
17.563310623168945 -2.983633518218994 -1.574339747428894 255 255 255
10.178213119506836 4.2621870040893555 0.33390185236930847 255 255 255
23.57575225830078 -8.854119300842285 -1.0394480228424072 255 255 255
10.059961318969727 5.176569938659668 -0.18870440125465393 255 255 255
28.603843688964844 -4.331551551818848 -1.2139365673065186 255 255 255
12.157391548156738 -0.20613864064216614 -1.5412245988845825 255 255 255
17.210220336914062 2.6036951541900635 -0.00845761876553297 255 255 255
10.833902359008789 -0.3714173436164856 -1.516758918762207 255 255 255
9.749143600463867 -3.725376844406128 -1.7267543077468872 255 255 255
7.3841142654418945 -1.6154884099960327 -1.7108639478683472 255 255 255
9.003281593322754 -7.164605140686035 -0.8678330779075623 255 255 255
32.16212844848633 -9.170397758483887 -1.5011687278747559 255 255 255
23.09744644165039 1.5384876728057861 -0.2511305510997772 255 255 255
6.259830951690674 1.44122314453125 -1.6526018381118774 255 255 255
18.22981834411621 -6.009676456451416 -1.6825506687164307 255 255 255
6.688676834106445 4.4533538818359375 0.3085516095161438 255 255 255
7.342135906219482 0.051602259278297424 -1.6636252403259277 255 255 255
13.73305892944336 -0.9544950127601624 -0.11548663675785065 255 255 255
6.457639694213867 1.37968909740448 -0.9478335976600647 255 255 255
6.890722274780273 4.408321857452393 -0.067356638610363 255 255 255
39.70293045043945 -18.00147819519043 1.669701099395752 255 255 255
5.170506000518799 -3.4222328662872314 -1.3004276752471924 255 255 255
75.70506286621094 -14.99941635131836 2.297726631164551 255 255 255
6.5465898513793945 0.417660117149353 -1.669480562210083 255 255 255
7.268923282623291 0.6876875758171082 -0.7373712658882141 255 255 255
9.63841724395752 5.1273722648620605 0.3261425793170929 255 255 255
3.8771495819091797 2.316000461578369 -0.2700062394142151 255 255 255
15.763989448547363 7.505923271179199 -0.015199105255305767 255 255 255
4.376209259033203 1.7947546243667603 -1.030396819114685 255 255 255
13.018404006958008 4.087072849273682 -0.311937540769577 255 255 255
6.85102653503418 4.571432590484619 -0.39884501695632935 255 255 255
54.47390365600586 -6.572940826416016 1.6261652708053589 255 255 255
17.390295028686523 -10.051431655883789 -0.4856625497341156 255 255 255
4.93587064743042 -3.783080577850342 -1.0116157531738281 255 255 255
8.486836433410645 -3.4879679679870605 -1.7314625978469849 255 255 255
14.629737854003906 -0.6561340093612671 -0.6338379383087158 255 255 255
13.37994384765625 -8.273677825927734 0.05885546654462814 255 255 255
6.307607173919678 1.2368357181549072 -1.595731496810913 255 255 255
11.943382263183594 -7.621246814727783 -0.004511438310146332 255 255 255
15.09843921661377 3.300201892852783 0.1899111568927765 255 255 255
10.429265022277832 -7.514851093292236 -0.9626312255859375 255 255 255
11.090066909790039 -7.683664321899414 -0.09033766388893127 255 255 255
10.823180198669434 -0.20257851481437683 -1.5980788469314575 255 255 255
6.964406967163086 0.39055314660072327 -1.5714010000228882 255 255 255
3.880754232406616 2.0835745334625244 -0.27130013704299927 255 255 255
9.871499061584473 4.142618656158447 0.5380296111106873 255 255 255
29.207616806030273 -7.86934232711792 -1.5637375116348267 255 255 255
10.254751205444336 -8.104060173034668 0.266821026802063 255 255 255
6.731728553771973 0.9162947535514832 -0.7357339262962341 255 255 255
11.128998756408691 -2.1110260486602783 -1.6030746698379517 255 255 255
11.905049324035645 -2.306016683578491 -1.693830132484436 255 255 255
8.23379135131836 -3.1142141819000244 -1.7732481956481934 255 255 255
18.938371658325195 -8.363475799560547 -0.9174115061759949 255 255 255
12.92736530303955 -1.0953809022903442 -0.6710782051086426 255 255 255
7.5631866455078125 -2.5574443340301514 -1.838712453842163 255 255 255
7.51738977432251 -1.7769815921783447 -1.7082315683364868 255 255 255
13.701430320739746 -0.1978769153356552 -1.4617894887924194 255 255 255
20.361309051513672 4.8809814453125 -0.5065709948539734 255 255 255
6.633810043334961 0.7840750813484192 -1.6019591093063354 255 255 255
28.690650939941406 -6.119509220123291 -1.459887981414795 255 255 255
11.081741333007812 -8.013432502746582 -0.6176654696464539 255 255 255
6.832489490509033 4.555900573730469 -0.18195512890815735 255 255 255
7.097405433654785 -3.306976556777954 -1.7397128343582153 255 255 255
13.691140174865723 -0.9642332792282104 -0.1717928797006607 255 255 255
6.658651828765869 4.558219909667969 -0.07623561471700668 255 255 255
4.489338397979736 2.614995002746582 -0.7361446022987366 255 255 255
10.442667961120605 -2.658662796020508 -1.660544514656067 255 255 255
12.673050880432129 -8.358528137207031 -0.8160721063613892 255 255 255
36.45912170410156 -11.741825103759766 -1.466670036315918 255 255 255
13.225772857666016 -0.03143293038010597 -0.6603350043296814 255 255 255
13.7243013381958 -7.746488571166992 0.537311315536499 255 255 255
9.970939636230469 -7.527641296386719 -1.0259205102920532 255 255 255
6.508620738983154 1.2223024368286133 -0.9215182065963745 255 255 255
21.213659286499023 -10.184802055358887 0.9701197743415833 255 255 255
17.98260498046875 3.6942191123962402 0.36607643961906433 255 255 255
12.634337425231934 -7.8259172439575195 0.42029398679733276 255 255 255
5.035898208618164 -3.7534677982330322 -1.3196159601211548 255 255 255
18.884117126464844 5.202941417694092 -0.003319562878459692 255 255 255
10.460944175720215 -7.831320285797119 -0.6423077583312988 255 255 255
4.453720569610596 1.7153470516204834 -1.0552330017089844 255 255 255
15.776935577392578 -9.306168556213379 -0.20017071068286896 255 255 255
18.885032653808594 0.24110163748264313 -0.5904352068901062 255 255 255
6.93412971496582 0.8775694370269775 -0.9042572379112244 255 255 255
6.453710079193115 4.9892683029174805 -0.2174111008644104 255 255 255
22.994728088378906 -5.703471660614014 -1.5248546600341797 255 255 255
15.601720809936523 -2.0659584999084473 -1.3690091371536255 255 255 255
7.222654342651367 -3.1926400661468506 -1.8167259693145752 255 255 255
22.814897537231445 -11.737092971801758 -0.6560370922088623 255 255 255
14.152356147766113 -0.2336820811033249 -1.4588626623153687 255 255 255
13.994768142700195 -5.368143081665039 -1.7465112209320068 255 255 255
17.16431999206543 5.6870646476745605 0.747238039970398 255 255 255
10.242389678955078 3.611990213394165 0.28361189365386963 255 255 255
9.193449974060059 1.5939552783966064 -0.5325145125389099 255 255 255
15.711091995239258 4.822786331176758 -0.7425634264945984 255 255 255
6.358335018157959 -0.4789726734161377 -1.5914137363433838 255 255 255
6.8946003913879395 1.154449462890625 -0.7769067883491516 255 255 255
7.190016269683838 -3.2155921459198 -1.26149320602417 255 255 255
4.857114315032959 1.6616631746292114 -1.1469199657440186 255 255 255
13.282743453979492 -1.2724084854125977 -1.6533366441726685 255 255 255
18.19732093811035 2.7680320739746094 0.015081668272614479 255 255 255
3.4201464653015137 2.0821280479431152 -0.7598026990890503 255 255 255
17.28757095336914 -6.754263877868652 -1.792733907699585 255 255 255
54.62958908081055 -5.881443977355957 0.8457342982292175 255 255 255
8.134215354919434 0.5188707113265991 -0.6472126841545105 255 255 255
8.245057106018066 -2.8853557109832764 -1.7297909259796143 255 255 255
6.810680866241455 2.2355287075042725 -0.6846685409545898 255 255 255
4.2928361892700195 1.8343585729599 -0.9422992467880249 255 255 255
3.3612465858459473 2.296090602874756 -0.23828233778476715 255 255 255
3.2503185272216797 2.34793758392334 -0.2015388458967209 255 255 255
5.180075645446777 -3.6599292755126953 -1.2706962823867798 255 255 255
9.943354606628418 -2.5219883918762207 -1.7809263467788696 255 255 255
10.347637176513672 3.1066126823425293 -0.7520068883895874 255 255 255
18.590185165405273 1.5541199445724487 -0.011140795424580574 255 255 255
9.056933403015137 4.791390895843506 0.5317665934562683 255 255 255
9.990717887878418 5.23783540725708 0.026683764532208443 255 255 255
13.948895454406738 -2.1762688159942627 -1.7234464883804321 255 255 255
36.89288330078125 -1.8165265321731567 0.4827723503112793 255 255 255
12.335055351257324 -5.0852580070495605 -1.6962424516677856 255 255 255
18.02518081665039 -5.641702651977539 -1.6567143201828003 255 255 255
20.64288330078125 -11.5194091796875 -0.29940110445022583 255 255 255
5.359663486480713 -2.947028160095215 -1.1818944215774536 255 255 255
12.943249702453613 -4.162096977233887 -1.6613043546676636 255 255 255
13.937273025512695 -2.1843984127044678 -1.5601569414138794 255 255 255
4.091586589813232 1.905242681503296 -1.0022246837615967 255 255 255
11.084866523742676 -9.111261367797852 0.5097289085388184 255 255 255
13.469343185424805 6.650599956512451 -0.4343361556529999 255 255 255
16.04583168029785 -9.442611694335938 -0.9107218384742737 255 255 255
19.817649841308594 5.015146732330322 0.1448020488023758 255 255 255
19.133243560791016 -10.122291564941406 -1.0285887718200684 255 255 255
21.779123306274414 -0.16796360909938812 0.1922808289527893 255 255 255
9.652002334594727 0.15638846158981323 -1.092868685722351 255 255 255
3.5114378929138184 2.3292489051818848 -0.05043572932481766 255 255 255
19.223621368408203 -10.839173316955566 -0.15384608507156372 255 255 255
21.634967803955078 4.574706077575684 -0.23660163581371307 255 255 255
6.584878921508789 1.9740025997161865 -1.10433030128479 255 255 255
5.3039727210998535 -2.857116460800171 -1.1252573728561401 255 255 255
18.373058319091797 5.458202362060547 -0.03406180813908577 255 255 255
11.448065757751465 -7.915270805358887 -0.5744268298149109 255 255 255
13.261405944824219 0.015621457248926163 -1.1535090208053589 255 255 255
12.941095352172852 -7.383966445922852 0.6901120543479919 255 255 255
17.143814086914062 2.7994890213012695 0.3067779541015625 255 255 255
14.888763427734375 -9.202473640441895 -0.5140584707260132 255 255 255
6.401482105255127 1.3030123710632324 -0.8940799236297607 255 255 255
7.89297342300415 0.45791682600975037 -1.5375351905822754 255 255 255
6.605996608734131 1.0509685277938843 -1.4813343286514282 255 255 255
8.118452072143555 0.46317192912101746 -0.6426584124565125 255 255 255
17.296552658081055 5.684305191040039 0.3907874524593353 255 255 255
21.56601905822754 -0.7211397886276245 0.8154858946800232 255 255 255
6.1316046714782715 1.960409164428711 -1.5993351936340332 255 255 255
7.993231773376465 -1.7779958248138428 -1.7668286561965942 255 255 255
8.488475799560547 -6.953964710235596 -1.6475708484649658 255 255 255
6.708596706390381 -1.0102744102478027 -1.7403273582458496 255 255 255
7.245006561279297 -0.704382598400116 -1.7326260805130005 255 255 255
3.334646701812744 2.153068780899048 -0.6389741897583008 255 255 255
3.443138360977173 2.5308005809783936 -0.15973232686519623 255 255 255
8.304872512817383 0.6019784212112427 -1.647200584411621 255 255 255
6.370070457458496 -1.5186082124710083 -1.6708775758743286 255 255 255
5.334654331207275 -2.931360960006714 -0.9031021595001221 255 255 255
2.9614663124084473 2.2630884647369385 -0.6767977476119995 255 255 255
21.339797973632812 0.39417290687561035 0.6620877385139465 255 255 255
5.103302955627441 -3.2994883060455322 -1.3932620286941528 255 255 255
13.488395690917969 -3.9215803146362305 -1.7281343936920166 255 255 255
6.582109451293945 -0.7155896425247192 -1.688839316368103 255 255 255
3.7254858016967773 2.0280470848083496 -0.7891358137130737 255 255 255
19.322826385498047 -7.438467979431152 -0.9762265086174011 255 255 255
6.433797836303711 2.0251827239990234 -0.8936417698860168 255 255 255
15.539968490600586 6.744974613189697 -0.13722488284111023 255 255 255
11.657675743103027 -7.757575035095215 0.10024470090866089 255 255 255
4.001481056213379 1.8668789863586426 -0.8405443429946899 255 255 255
6.623961925506592 4.627982139587402 -0.12567152082920074 255 255 255
6.230071544647217 1.595107078552246 -1.5696418285369873 255 255 255
43.540340423583984 -4.117441177368164 1.5046058893203735 255 255 255
6.802244186401367 4.344536781311035 0.4610636532306671 255 255 255
23.9807071685791 -9.302523612976074 -0.3805607557296753 255 255 255
8.378060340881348 -1.5949221849441528 -1.6738134622573853 255 255 255
8.92056941986084 3.6041860580444336 -1.0938148498535156 255 255 255
17.736400604248047 5.472237586975098 -0.11528000980615616 255 255 255
5.230300426483154 -3.3850858211517334 -0.9000364542007446 255 255 255
13.522043228149414 -8.7539644241333 -0.8295997977256775 255 255 255
14.535101890563965 7.0715837478637695 -0.22415781021118164 255 255 255
15.9526948928833 -9.420722007751465 -1.1585320234298706 255 255 255
3.3799235820770264 2.0408875942230225 -0.8356514573097229 255 255 255
4.909035682678223 -3.8388707637786865 -1.163425087928772 255 255 255
14.421570777893066 -6.809425354003906 -1.666863203048706 255 255 255
7.847134113311768 -3.031982660293579 -1.7677682638168335 255 255 255
13.658638954162598 -0.7962177991867065 -0.1275709867477417 255 255 255
18.16486930847168 5.495498180389404 -0.5524711012840271 255 255 255
19.132617950439453 -8.117178916931152 -0.24060259759426117 255 255 255
7.211461544036865 0.7719882130622864 -0.9754087328910828 255 255 255
18.035106658935547 5.546072959899902 -0.6535776257514954 255 255 255
18.833311080932617 -4.843081951141357 -1.5552173852920532 255 255 255
24.453771591186523 -6.2624735832214355 -1.466784954071045 255 255 255
3.4710400104522705 2.3676977157592773 -0.11420244723558426 255 255 255
18.102846145629883 5.506363868713379 0.23899894952774048 255 255 255
18.960468292236328 5.230841159820557 0.14467284083366394 255 255 255
18.728883743286133 1.3829565048217773 0.38408347964286804 255 255 255
5.210810661315918 -2.9462594985961914 -1.1115012168884277 255 255 255
60.789363861083984 -24.550928115844727 1.236038088798523 255 255 255
3.5110771656036377 2.21417498588562 -0.2282794713973999 255 255 255
10.059656143188477 -8.094084739685059 0.21222849190235138 255 255 255
19.497861862182617 -10.69980525970459 -0.36607852578163147 255 255 255
9.374404907226562 0.2602172791957855 -1.3731783628463745 255 255 255
13.01156234741211 -1.2577648162841797 -1.2547169923782349 255 255 255
33.908626556396484 -6.67791223526001 0.3006645143032074 255 255 255
17.090240478515625 -6.027477741241455 -1.6834540367126465 255 255 255
6.769470691680908 0.9556826949119568 -0.8354727625846863 255 255 255
40.738704681396484 -3.1285648345947266 0.9203587770462036 255 255 255
18.12691307067871 2.172729253768921 0.05773197486996651 255 255 255
13.265420913696289 -1.482522964477539 -1.542785406112671 255 255 255
3.683830499649048 1.9782893657684326 -1.0301076173782349 255 255 255
9.554986953735352 -2.4903082847595215 -1.7225162982940674 255 255 255
5.178957939147949 -2.976632833480835 -1.449494481086731 255 255 255
12.897867202758789 -4.085536479949951 -1.6444727182388306 255 255 255
7.895335674285889 -0.5755055546760559 -1.6867873668670654 255 255 255
14.031036376953125 -0.042996473610401154 -1.5100288391113281 255 255 255
21.317689895629883 1.3692171573638916 0.779508650302887 255 255 255
16.578336715698242 5.909220218658447 0.6498467326164246 255 255 255
8.859081268310547 0.34644123911857605 -1.1654976606369019 255 255 255
15.127998352050781 2.6925177574157715 0.5709249973297119 255 255 255
12.464851379394531 8.107840538024902 -0.6317089796066284 255 255 255
9.221181869506836 3.317643404006958 -0.9626542329788208 255 255 255
8.29952335357666 0.4023047089576721 -0.5596591830253601 255 255 255
7.478719234466553 -1.6996026039123535 -1.6565178632736206 255 255 255
4.361757278442383 1.723414421081543 -0.8204668164253235 255 255 255
8.189321517944336 -0.4355023503303528 -1.6192457675933838 255 255 255
21.50061798095703 -11.08700942993164 -0.994742214679718 255 255 255
7.472494125366211 -3.0368149280548096 -1.744181752204895 255 255 255
5.778608322143555 -3.201467275619507 -0.4050830006599426 255 255 255
12.832514762878418 -3.7764296531677246 -1.6616476774215698 255 255 255
12.62348461151123 -7.568096160888672 0.6727637052536011 255 255 255
7.190611362457275 -0.9832196831703186 -1.6721724271774292 255 255 255
22.042217254638672 -10.356932640075684 -1.7600369453430176 255 255 255
75.68465423583984 -14.945749282836914 1.3601387739181519 255 255 255
13.18076229095459 -0.9578829407691956 -0.5151340365409851 255 255 255
11.353982925415039 -8.56965446472168 0.49380823969841003 255 255 255
14.510493278503418 -2.582805871963501 -1.5065428018569946 255 255 255
13.058599472045898 4.582813262939453 -0.3330281376838684 255 255 255
12.706446647644043 5.083359241485596 -0.8359343409538269 255 255 255
12.996654510498047 -1.0151326656341553 -0.6346724033355713 255 255 255
20.09885025024414 -5.643711090087891 -1.6309994459152222 255 255 255
24.0064640045166 -8.811570167541504 -1.7668064832687378 255 255 255
6.601960182189941 4.578150749206543 -0.3197435736656189 255 255 255
6.282081604003906 0.5359633564949036 -1.5985826253890991 255 255 255
9.466409683227539 3.214369773864746 -0.7896615862846375 255 255 255
7.376680374145508 4.199435234069824 -0.27771854400634766 255 255 255
12.66096305847168 7.329623222351074 -0.5680744051933289 255 255 255
18.30971908569336 0.534388542175293 -0.4435122609138489 255 255 255
13.096830368041992 -0.32091039419174194 -0.8304622173309326 255 255 255
9.277242660522461 -7.242108345031738 -1.0677285194396973 255 255 255
5.042994976043701 -3.6761720180511475 -1.280342698097229 255 255 255
12.86780071258545 -0.9212376475334167 -0.9494888782501221 255 255 255
17.944246292114258 -5.422699928283691 -1.5810112953186035 255 255 255
16.51907730102539 9.33764362335205 0.45599767565727234 255 255 255
6.379757404327393 1.6573835611343384 -1.6491742134094238 255 255 255
13.336583137512207 7.608441352844238 -0.4552851617336273 255 255 255
9.22514533996582 -1.2280648946762085 -1.7311939001083374 255 255 255
8.167657852172852 0.4198179244995117 -0.7701772451400757 255 255 255
10.066007614135742 4.191295146942139 -0.059874001890420914 255 255 255
11.984344482421875 -3.7368273735046387 -1.7620058059692383 255 255 255
22.4177188873291 -10.932186126708984 -0.010635420680046082 255 255 255
20.420360565185547 4.768934726715088 0.9141602516174316 255 255 255
4.961291790008545 1.6609448194503784 -0.9572458267211914 255 255 255
3.3745791912078857 2.064931869506836 -0.8441027402877808 255 255 255
9.553899765014648 -1.1173665523529053 -1.6683968305587769 255 255 255
7.6926493644714355 -3.603489398956299 -1.7547677755355835 255 255 255
7.313263416290283 0.39787977933883667 -1.6115458011627197 255 255 255
4.046291351318359 1.9577898979187012 -0.724459171295166 255 255 255
19.153600692749023 -8.033262252807617 -1.0180875062942505 255 255 255
14.99987506866455 -9.087784767150879 -0.10423360019922256 255 255 255
8.364521980285645 0.4710267186164856 -1.373112678527832 255 255 255
28.39702033996582 -3.121385335922241 -0.490335077047348 255 255 255
13.106270790100098 8.457369804382324 -0.6259053349494934 255 255 255
9.155559539794922 -2.254908561706543 -1.7297056913375854 255 255 255
7.604250431060791 -2.4107179641723633 -1.7431750297546387 255 255 255
9.6419095993042 3.3397343158721924 -1.01151442527771 255 255 255
6.515948295593262 1.268567681312561 -1.3295834064483643 255 255 255
13.24304485321045 -7.699559211730957 0.4115411639213562 255 255 255
8.034444808959961 0.5577380657196045 -1.6382277011871338 255 255 255
5.243819713592529 -3.447657823562622 -0.8432014584541321 255 255 255
6.631430625915527 1.9209626913070679 -0.9852733016014099 255 255 255
13.900901794433594 -1.511997938156128 -0.8403813242912292 255 255 255
44.96207046508789 -4.38114595413208 0.17053832113742828 255 255 255
6.54283332824707 1.8419616222381592 -1.7131096124649048 255 255 255
75.13381958007812 -16.219274520874023 1.9165112972259521 255 255 255
26.222396850585938 -3.843458890914917 -1.242442011833191 255 255 255
8.5145263671875 3.6488497257232666 -0.9531764388084412 255 255 255
7.334983825683594 0.26910096406936646 -1.693341612815857 255 255 255
3.55556321144104 2.094006061553955 -0.8186236619949341 255 255 255
8.288909912109375 -2.311988353729248 -1.627203345298767 255 255 255
3.673292875289917 2.011960983276367 -0.7975792288780212 255 255 255
23.09636688232422 -10.970648765563965 0.6655888557434082 255 255 255
7.3268818855285645 0.6309290528297424 -0.7340704202651978 255 255 255
5.5789666175842285 -3.504554033279419 -0.34623685479164124 255 255 255
25.122203826904297 -8.316807746887207 -1.6301171779632568 255 255 255
14.855754852294922 -1.8319674730300903 -0.5361447334289551 255 255 255
6.3715434074401855 1.78597891330719 -0.9537566900253296 255 255 255
29.267385482788086 -4.8492512702941895 -1.2894397974014282 255 255 255
18.526884078979492 1.54603910446167 0.05001483112573624 255 255 255
8.084952354431152 -2.000436305999756 -1.7431391477584839 255 255 255
19.046340942382812 -8.307458877563477 -1.3635058403015137 255 255 255
6.883964538574219 -0.08634510636329651 -1.6050043106079102 255 255 255
8.175416946411133 3.787224292755127 -0.8088568449020386 255 255 255
24.608983993530273 -12.05542278289795 -1.7002547979354858 255 255 255
13.464604377746582 3.931318998336792 0.4562780261039734 255 255 255
6.975660800933838 0.9023742079734802 -0.6753172278404236 255 255 255
6.783946514129639 1.2565672397613525 -0.6865129470825195 255 255 255
13.899435997009277 7.768616199493408 -0.3979400396347046 255 255 255
8.475013732910156 1.0110199451446533 -0.6299388408660889 255 255 255
16.578712463378906 -9.624156951904297 -0.8050559163093567 255 255 255
8.28245735168457 3.7048020362854004 -0.9484915733337402 255 255 255
18.025814056396484 3.6337649822235107 0.665438711643219 255 255 255
6.341012477874756 1.1646935939788818 -1.0638412237167358 255 255 255
5.764939785003662 -2.914766788482666 -1.3424237966537476 255 255 255
13.53564453125 4.166351795196533 0.6385259628295898 255 255 255
8.790136337280273 0.4751073122024536 -0.09773692488670349 255 255 255
8.808252334594727 -7.131908893585205 -1.3018468618392944 255 255 255
19.206769943237305 -10.277161598205566 -1.1748902797698975 255 255 255
40.161773681640625 -11.956942558288574 -1.4177552461624146 255 255 255
7.111225128173828 -0.13726580142974854 -1.653591513633728 255 255 255
8.252245903015137 0.8929992914199829 -0.43524235486984253 255 255 255
13.250078201293945 -0.8760653734207153 -1.654530644416809 255 255 255
17.68238067626953 2.4601171016693115 -0.1974533200263977 255 255 255
14.058136940002441 -4.991302490234375 -1.7760083675384521 255 255 255
7.049267768859863 4.424569606781006 0.4045601189136505 255 255 255
31.462308883666992 -6.972188949584961 -1.390183925628662 255 255 255
39.91563034057617 -17.682403564453125 0.3051767647266388 255 255 255
7.353710174560547 5.9486284255981445 0.45921289920806885 255 255 255
13.205316543579102 -1.4728939533233643 -1.5778915882110596 255 255 255
6.794303894042969 1.2698845863342285 -0.7443752288818359 255 255 255
6.341276168823242 2.047077178955078 -1.2157784700393677 255 255 255
12.98725700378418 -0.6797177791595459 -0.8675984740257263 255 255 255
12.973692893981934 -0.37591323256492615 -0.9813880920410156 255 255 255
9.582608222961426 -0.8842340707778931 -1.6131502389907837 255 255 255
18.494037628173828 5.453263759613037 -0.5219064354896545 255 255 255
36.151126861572266 -11.113175392150879 -1.485295295715332 255 255 255
10.339898109436035 -0.21546712517738342 -1.6429308652877808 255 255 255
8.63870620727539 3.703401565551758 -1.0225542783737183 255 255 255
5.100911617279053 -3.5057568550109863 -0.8100292682647705 255 255 255
4.171827793121338 1.9454803466796875 -0.7636160850524902 255 255 255
6.720407485961914 4.670299053192139 -0.36707887053489685 255 255 255
17.84393310546875 2.413533926010132 0.16365550458431244 255 255 255
8.698280334472656 -7.029385566711426 -1.6764408349990845 255 255 255
9.202869415283203 0.23458123207092285 -0.48702627420425415 255 255 255
8.9763822555542 3.629657030105591 -0.7279193997383118 255 255 255
8.95438003540039 -7.28652811050415 -0.5578942894935608 255 255 255
9.154650688171387 -1.584450602531433 -1.7115557193756104 255 255 255
17.413732528686523 2.538025379180908 0.397441565990448 255 255 255
5.971312999725342 4.805582046508789 -0.004373201169073582 255 255 255
20.691076278686523 -7.588199138641357 -1.6831614971160889 255 255 255
4.639834880828857 1.6811950206756592 -0.9123854041099548 255 255 255
3.0167438983917236 2.238246202468872 -0.7365739345550537 255 255 255
13.092687606811523 -0.7708426117897034 -1.5648713111877441 255 255 255
4.997588157653809 1.6641571521759033 -0.7855744361877441 255 255 255
18.497512817382812 -7.764549732208252 -1.6631603240966797 255 255 255
31.684036254882812 -7.0539021492004395 -0.6603038311004639 255 255 255
5.2737650871276855 -2.974703073501587 -0.9581208825111389 255 255 255
9.58049201965332 -1.881415843963623 -1.6443074941635132 255 255 255
5.104511737823486 -3.1507840156555176 -1.3670350313186646 255 255 255
14.517552375793457 -4.208593845367432 -1.7173248529434204 255 255 255
3.3735408782958984 2.705054521560669 -0.06521128863096237 255 255 255
18.04937171936035 -9.981209754943848 -1.1400858163833618 255 255 255
10.9476957321167 -7.9778828620910645 -0.5051761865615845 255 255 255
19.061565399169922 -8.429845809936523 -1.3460768461227417 255 255 255
11.4359769821167 -8.222413063049316 0.6434296369552612 255 255 255
13.070716857910156 4.710429668426514 -0.5900830030441284 255 255 255
9.717630386352539 3.563527822494507 0.27917155623435974 255 255 255
9.49742603302002 -3.1725592613220215 -1.7676494121551514 255 255 255
22.970163345336914 -1.3084402084350586 0.8186507225036621 255 255 255
3.0432205200195312 2.330850839614868 -0.19379447400569916 255 255 255
10.226900100708008 -7.71176815032959 -0.5945530533790588 255 255 255
3.1994881629943848 2.3035871982574463 -0.17144538462162018 255 255 255
10.229413032531738 3.2451350688934326 -0.828840434551239 255 255 255
18.99968147277832 5.198233127593994 0.4678777754306793 255 255 255
7.108181476593018 -0.17737530171871185 -1.575836181640625 255 255 255
9.096595764160156 4.550247669219971 0.5447065830230713 255 255 255
13.04705810546875 -0.6335402727127075 -1.246423363685608 255 255 255
20.247121810913086 4.744898796081543 0.22266271710395813 255 255 255
9.219362258911133 0.5680665969848633 -1.6312172412872314 255 255 255
12.120654106140137 5.180305480957031 -0.8300908207893372 255 255 255
13.170608520507812 -1.2277770042419434 -1.4830795526504517 255 255 255
9.010781288146973 0.17797760665416718 -1.151902437210083 255 255 255
10.461538314819336 3.2186646461486816 -0.8390125036239624 255 255 255
14.177181243896484 -1.2502120733261108 -1.5480072498321533 255 255 255
