ply
format ascii 1.0
element vertex 692
property float x
property float y
property float z
property uchar red
property uchar green
property uchar blue
end_header
5.115616798400879 -3.1227569580078125 -0.8598175048828125 255 255 255
5.145145893096924 -2.940377950668335 -0.9561077356338501 255 255 255
5.138797760009766 -3.0878517627716064 -0.9827942848205566 255 255 255
5.320684432983398 -3.0426225662231445 -1.025830864906311 255 255 255
5.271549701690674 -3.0322961807250977 -0.9255366325378418 255 255 255
7.54605770111084 -3.8426413536071777 -1.4895871877670288 255 255 255
7.598320960998535 -3.8549482822418213 -1.5514262914657593 255 255 255
7.680775165557861 -3.7715516090393066 -1.483636498451233 255 255 255
7.797048568725586 -3.873955726623535 -1.5253303050994873 255 255 255
7.844954013824463 -3.961045742034912 -1.5343161821365356 255 255 255
9.128377914428711 -4.426730155944824 -1.677184820175171 255 255 255
9.285516738891602 -4.394937992095947 -1.8030732870101929 255 255 255
9.087442398071289 -4.499241352081299 -1.7137740850448608 255 255 255
9.146468162536621 -4.455411911010742 -1.6971319913864136 255 255 255
9.145151138305664 -4.286768913269043 -1.7861146926879883 255 255 255
9.291866302490234 -4.323774337768555 -1.7656402587890625 255 255 255
9.254881858825684 -4.378720760345459 -1.718467354774475 255 255 255
9.22196102142334 -4.3400983810424805 -1.783131718635559 255 255 255
9.215873718261719 -4.287302017211914 -1.8066664934158325 255 255 255
9.244585990905762 -4.2171478271484375 -1.7286453247070312 255 255 255
9.288419723510742 -4.212406635284424 -1.7326253652572632 255 255 255
9.193619728088379 -4.235648155212402 -1.6418554782867432 255 255 255
9.23057746887207 -4.189906120300293 -1.7055693864822388 255 255 255
9.27770709991455 -4.154138088226318 -1.743577003479004 255 255 255
9.256507873535156 -4.0242815017700195 -1.6987320184707642 255 255 255
9.231279373168945 -4.052026748657227 -1.7749571800231934 255 255 255
9.201773643493652 -4.037960529327393 -1.7879787683486938 255 255 255
9.212931632995605 -3.9877121448516846 -1.7764285802841187 255 255 255
9.257305145263672 -3.985841989517212 -1.7425888776779175 255 255 255
9.325864791870117 -3.910104751586914 -1.7700883150100708 255 255 255
9.24879264831543 -3.879323959350586 -1.678853154182434 255 255 255
9.350499153137207 -3.8622665405273438 -1.8231980800628662 255 255 255
9.318439483642578 -3.8041141033172607 -1.7393437623977661 255 255 255
9.280901908874512 -3.7618625164031982 -1.7214127779006958 255 255 255
9.290644645690918 -3.832937240600586 -1.7281465530395508 255 255 255
9.296894073486328 -3.7875304222106934 -1.729083776473999 255 255 255
9.275309562683105 -3.6529648303985596 -1.7379447221755981 255 255 255
9.359384536743164 -3.696645498275757 -1.7326849699020386 255 255 255
9.306767463684082 -3.652172327041626 -1.7756569385528564 255 255 255
9.408092498779297 -3.6821863651275635 -1.7585121393203735 255 255 255
9.44144058227539 -3.528867244720459 -1.803612470626831 255 255 255
9.318731307983398 -3.5168375968933105 -1.749048113822937 255 255 255
9.289283752441406 -3.5873215198516846 -1.7609214782714844 255 255 255
9.386444091796875 -3.5970425605773926 -1.7264552116394043 255 255 255
9.328773498535156 -3.518129348754883 -1.6957511901855469 255 255 255
9.315376281738281 -3.4811973571777344 -1.6860544681549072 255 255 255
9.416255950927734 -3.42030930519104 -1.7404999732971191 255 255 255
9.380537033081055 -3.3814432621002197 -1.7140436172485352 255 255 255
9.432286262512207 -3.2820708751678467 -1.721476435661316 255 255 255
9.345453262329102 -3.3842852115631104 -1.7152047157287598 255 255 255
9.488836288452148 -3.253514528274536 -1.702683687210083 255 255 255
9.390902519226074 -3.350170373916626 -1.711432933807373 255 255 255
9.43310832977295 -3.23730206489563 -1.7373442649841309 255 255 255
9.342512130737305 -3.174642562866211 -1.7063922882080078 255 255 255
9.321504592895508 -3.2562367916107178 -1.6942139863967896 255 255 255
9.450601577758789 -3.118863105773926 -1.6420172452926636 255 255 255
9.395732879638672 -3.006226062774658 -1.7033979892730713 255 255 255
9.385712623596191 -3.0898144245147705 -1.7850528955459595 255 255 255
9.467592239379883 -3.1234261989593506 -1.7022523880004883 255 255 255
9.425712585449219 -3.0198118686676025 -1.680019497871399 255 255 255
9.491389274597168 -3.0226855278015137 -1.7038520574569702 255 255 255
9.435994148254395 -3.1500349044799805 -1.7284278869628906 255 255 255
9.476092338562012 -3.0284037590026855 -1.6311402320861816 255 255 255
9.476898193359375 -3.0111498832702637 -1.6671277284622192 255 255 255
9.5476713180542 -2.9234511852264404 -1.7233514785766602 255 255 255
9.445207595825195 -2.876730442047119 -1.723188042640686 255 255 255
9.419099807739258 -2.9213948249816895 -1.7187455892562866 255 255 255
9.44682788848877 -2.818052291870117 -1.7046931982040405 255 255 255
9.431736946105957 -2.7533061504364014 -1.70399808883667 255 255 255
9.44715404510498 -2.765404224395752 -1.59784734249115 255 255 255
9.488202095031738 -2.7197320461273193 -1.6895215511322021 255 255 255
9.434167861938477 -2.659731864929199 -1.7513383626937866 255 255 255
9.473455429077148 -2.711838722229004 -1.6113086938858032 255 255 255
9.411161422729492 -2.618853807449341 -1.6627753973007202 255 255 255
9.491716384887695 -2.6611247062683105 -1.6616686582565308 255 255 255
9.569906234741211 -2.490755319595337 -1.5796862840652466 255 255 255
9.456243515014648 -2.627946615219116 -1.7061201333999634 255 255 255
9.463464736938477 -2.5117979049682617 -1.6669894456863403 255 255 255
9.467092514038086 -2.4647908210754395 -1.701764702796936 255 255 255
9.419825553894043 -2.4421327114105225 -1.6437687873840332 255 255 255
9.504145622253418 -2.5404138565063477 -1.6720346212387085 255 255 255
9.545295715332031 -2.4357359409332275 -1.6721092462539673 255 255 255
9.502701759338379 -2.376173496246338 -1.648650050163269 255 255 255
9.588767051696777 -2.312039852142334 -1.721619725227356 255 255 255
9.530184745788574 -2.333327531814575 -1.6767256259918213 255 255 255
9.506390571594238 -2.2914772033691406 -1.7705916166305542 255 255 255
9.534900665283203 -2.2741470336914062 -1.7604821920394897 255 255 255
9.543998718261719 -2.273266077041626 -1.6516848802566528 255 255 255
9.529711723327637 -2.1869399547576904 -1.7339448928833008 255 255 255
9.458468437194824 -2.2127795219421387 -1.674242615699768 255 255 255
9.522661209106445 -2.159069061279297 -1.6330147981643677 255 255 255
9.542614936828613 -2.1767754554748535 -1.7247686386108398 255 255 255
9.518159866333008 -2.041484832763672 -1.6757410764694214 255 255 255
9.451271057128906 -2.027132987976074 -1.6481719017028809 255 255 255
9.53581714630127 -2.068981885910034 -1.6761360168457031 255 255 255
9.567973136901855 -1.9572012424468994 -1.6569358110427856 255 255 255
9.488462448120117 -2.0017101764678955 -1.6703115701675415 255 255 255
9.614522933959961 -1.968629002571106 -1.6473828554153442 255 255 255
9.542861938476562 -1.9783287048339844 -1.5766452550888062 255 255 255
9.51365852355957 -1.839375376701355 -1.6202671527862549 255 255 255
9.490973472595215 -1.8941495418548584 -1.6487454175949097 255 255 255
9.50296688079834 -1.904018759727478 -1.59495210647583 255 255 255
9.467525482177734 -1.738961100578308 -1.6513407230377197 255 255 255
9.56663703918457 -1.7639156579971313 -1.5797463655471802 255 255 255
9.552397727966309 -1.6705951690673828 -1.6171985864639282 255 255 255
9.639180183410645 -1.7628321647644043 -1.596560001373291 255 255 255
9.49329662322998 -1.682052731513977 -1.7745503187179565 255 255 255
9.493877410888672 -1.6621078252792358 -1.5800058841705322 255 255 255
9.5808744430542 -1.6180167198181152 -1.5352013111114502 255 255 255
9.478344917297363 -1.6851859092712402 -1.5830049514770508 255 255 255
9.565141677856445 -1.5882465839385986 -1.722957968711853 255 255 255
9.612627029418945 -1.5359079837799072 -1.680650234222412 255 255 255
9.406822204589844 -1.4654649496078491 -1.7178863286972046 255 255 255
9.500886917114258 -1.467673659324646 -1.7087997198104858 255 255 255
9.51909351348877 -1.5006557703018188 -1.6269198656082153 255 255 255
9.480189323425293 -1.4212368726730347 -1.6426293849945068 255 255 255
9.508084297180176 -1.461672067642212 -1.675614833831787 255 255 255
9.4816312789917 -1.3307281732559204 -1.708564281463623 255 255 255
9.496082305908203 -1.3200725317001343 -1.6541141271591187 255 255 255
9.372953414916992 -1.2627613544464111 -1.6731523275375366 255 255 255
9.52076244354248 -1.3501564264297485 -1.6953331232070923 255 255 255
9.458883285522461 -1.1865365505218506 -1.6950645446777344 255 255 255
9.58505630493164 -1.115216612815857 -1.6049189567565918 255 255 255
9.605632781982422 -1.2113531827926636 -1.624137282371521 255 255 255
9.493609428405762 -1.239464282989502 -1.6271295547485352 255 255 255
9.469481468200684 -1.161564588546753 -1.7005069255828857 255 255 255
9.455864906311035 -1.0461643934249878 -1.7278934717178345 255 255 255
9.520301818847656 -1.1827667951583862 -1.7367215156555176 255 255 255
9.507476806640625 -1.0490124225616455 -1.6368017196655273 255 255 255
9.524293899536133 -1.0282928943634033 -1.6664271354675293 255 255 255
9.427480697631836 -1.039050817489624 -1.646185278892517 255 255 255
9.463595390319824 -1.0456393957138062 -1.64952552318573 255 255 255
9.554492950439453 -0.8963963985443115 -1.6324858665466309 255 255 255
9.504673957824707 -0.8560344576835632 -1.6433454751968384 255 255 255
9.423761367797852 -0.8915739059448242 -1.5415772199630737 255 255 255
9.550688743591309 -0.9617249965667725 -1.613034725189209 255 255 255
9.409428596496582 -0.7045308947563171 -1.5755873918533325 255 255 255
9.488938331604004 -0.7635297775268555 -1.6578933000564575 255 255 255
9.510817527770996 -0.9071208834648132 -1.6124897003173828 255 255 255
9.449832916259766 -0.7443662881851196 -1.603143334388733 255 255 255
9.44525146484375 -0.6943566203117371 -1.636562705039978 255 255 255
9.470911979675293 -0.720367968082428 -1.6109459400177002 255 255 255
9.393832206726074 -0.6851431131362915 -1.5724049806594849 255 255 255
9.461801528930664 -0.6336679458618164 -1.516814947128296 255 255 255
9.409385681152344 -0.593180775642395 -1.5128650665283203 255 255 255
9.530376434326172 -0.5644077062606812 -1.620154619216919 255 255 255
9.467554092407227 -0.49533969163894653 -1.6228877305984497 255 255 255
9.455101013183594 -0.5227988362312317 -1.6106387376785278 255 255 255
9.465529441833496 -0.49419382214546204 -1.6135385036468506 255 255 255
9.429832458496094 -0.4666673243045807 -1.5657438039779663 255 255 255
9.372265815734863 -0.537382185459137 -1.5112532377243042 255 255 255
9.515368461608887 -0.3634808659553528 -1.6531087160110474 255 255 255
9.370738983154297 -0.3996818959712982 -1.5758635997772217 255 255 255
9.346263885498047 -0.38154396414756775 -1.620275616645813 255 255 255
8.96143913269043 -0.3287543058395386 -1.6584563255310059 255 255 255
9.001702308654785 -0.34100142121315 -1.5647460222244263 255 255 255
9.050516128540039 -0.1771862506866455 -1.64003586769104 255 255 255
8.984848022460938 -0.2238265573978424 -1.6741962432861328 255 255 255
9.012925148010254 -0.299134224653244 -1.6325575113296509 255 255 255
8.916426658630371 -0.15446403622627258 -1.5898820161819458 255 255 255
9.043475151062012 -0.21236401796340942 -1.581648826599121 255 255 255
8.91904354095459 -0.07282768189907074 -1.7278201580047607 255 255 255
8.934164047241211 -0.05660337582230568 -1.611514925956726 255 255 255
8.942580223083496 -0.012676999904215336 -1.6241611242294312 255 255 255
8.981624603271484 -0.00410379096865654 -1.5512531995773315 255 255 255
9.036519050598145 -0.021546708419919014 -1.6045758724212646 255 255 255
8.960123062133789 -0.04355348274111748 -1.638924479484558 255 255 255
8.917245864868164 0.15341348946094513 -1.5813114643096924 255 255 255
9.002189636230469 0.05472690984606743 -1.614277720451355 255 255 255
8.832180976867676 0.12400852888822556 -1.5711199045181274 255 255 255
8.95200252532959 0.1655949503183365 -1.650493860244751 255 255 255
8.936209678649902 0.18645937740802765 -1.5506242513656616 255 255 255
8.896153450012207 0.20107868313789368 -1.6526579856872559 255 255 255
8.952768325805664 0.25739002227783203 -1.6475744247436523 255 255 255
8.997904777526855 0.16158421337604523 -1.6311827898025513 255 255 255
8.963052749633789 0.18537524342536926 -1.6854445934295654 255 255 255
8.909700393676758 0.28295424580574036 -1.4684761762619019 255 255 255
8.918813705444336 0.2812672555446625 -1.6847188472747803 255 255 255
8.912359237670898 0.33942586183547974 -1.573073148727417 255 255 255
8.85183334350586 0.32668888568878174 -1.5363082885742188 255 255 255
8.88396167755127 0.40689459443092346 -1.5972732305526733 255 255 255
8.839127540588379 0.4032508432865143 -1.6455817222595215 255 255 255
8.818517684936523 0.3708931803703308 -1.6185652017593384 255 255 255
7.750282287597656 0.4661919176578522 -1.3733088970184326 255 255 255
7.680346965789795 0.3263603746891022 -1.2958554029464722 255 255 255
7.381458282470703 0.44319209456443787 -1.3562650680541992 255 255 255
7.522813320159912 0.3914142847061157 -1.403948187828064 255 255 255
7.461891174316406 0.4870646893978119 -1.3213592767715454 255 255 255
7.392023086547852 0.4804556965827942 -1.365479588508606 255 255 255
7.235551357269287 0.4653458893299103 -1.2419986724853516 255 255 255
7.225837707519531 0.5925594568252563 -1.2844618558883667 255 255 255
7.3366827964782715 0.5671835541725159 -1.2520396709442139 255 255 255
7.247900009155273 0.6105085611343384 -1.364909291267395 255 255 255
7.394346237182617 0.6744665503501892 -1.3207916021347046 255 255 255
7.196956157684326 0.5699505805969238 -1.2270923852920532 255 255 255
6.821932315826416 0.5035716891288757 -1.1645015478134155 255 255 255
6.793582439422607 0.563714325428009 -1.2174886465072632 255 255 255
6.752840518951416 0.5643729567527771 -1.1704835891723633 255 255 255
6.807187557220459 0.6730186343193054 -1.3029297590255737 255 255 255
6.841719627380371 0.6737688779830933 -1.2027614116668701 255 255 255
6.8246636390686035 0.6610638499259949 -1.22825026512146 255 255 255
6.773123741149902 0.6889196038246155 -1.1866413354873657 255 255 255
6.614324569702148 0.7783439755439758 -1.1199066638946533 255 255 255
6.5883097648620605 0.7173352241516113 -1.1126621961593628 255 255 255
6.63243293762207 0.7019801139831543 -1.2302627563476562 255 255 255
6.556198596954346 0.7970198392868042 -1.0406616926193237 255 255 255
6.562465667724609 0.788496732711792 -1.1548576354980469 255 255 255
6.458553791046143 0.8022834062576294 -1.1258056163787842 255 255 255
6.436178684234619 0.7831903696060181 -1.177829623222351 255 255 255
6.45738410949707 0.7730571031570435 -1.1727288961410522 255 255 255
6.423457145690918 0.8128438591957092 -1.0909358263015747 255 255 255
6.438818454742432 0.8692538738250732 -1.209978699684143 255 255 255
6.5027079582214355 0.8104443550109863 -1.1084989309310913 255 255 255
6.444434642791748 0.8791271448135376 -1.083295464515686 255 255 255
6.5020551681518555 0.9324327111244202 -1.125457525253296 255 255 255
6.398350238800049 0.8710827827453613 -1.1549959182739258 255 255 255
6.426366806030273 0.9812001585960388 -1.150086522102356 255 255 255
6.399957180023193 0.8197079300880432 -1.131177544593811 255 255 255
6.367000579833984 1.0212664604187012 -1.171323537826538 255 255 255
6.354434490203857 0.9717127680778503 -1.15264093875885 255 255 255
6.364758491516113 1.000143051147461 -1.06265389919281 255 255 255
6.355123996734619 1.0902093648910522 -1.2069613933563232 255 255 255
6.477358341217041 1.1141157150268555 -1.1888939142227173 255 255 255
6.376222610473633 1.0822292566299438 -1.1518667936325073 255 255 255
6.408412456512451 1.158129334449768 -1.1711069345474243 255 255 255
6.466972827911377 1.1208351850509644 -1.0995479822158813 255 255 255
6.41162109375 1.1169487237930298 -1.1597508192062378 255 255 255
6.42776346206665 1.1476155519485474 -1.245321273803711 255 255 255
6.323212623596191 1.1084598302841187 -1.0726044178009033 255 255 255
6.415239334106445 1.1655018329620361 -1.1038081645965576 255 255 255
6.414494037628174 1.2860019207000732 -1.2034586668014526 255 255 255
6.373607158660889 1.2689450979232788 -1.182602047920227 255 255 255
6.3301100730896 1.267342209815979 -1.1709200143814087 255 255 255
6.502695560455322 1.2456103563308716 -1.1261341571807861 255 255 255
6.407912731170654 1.2758147716522217 -1.1550192832946777 255 255 255
6.440269470214844 1.3114210367202759 -1.1646227836608887 255 255 255
6.439761638641357 1.2595759630203247 -1.2338049411773682 255 255 255
6.410261631011963 1.3955847024917603 -1.1742255687713623 255 255 255
6.514891147613525 1.3998926877975464 -1.2002791166305542 255 255 255
6.367434978485107 1.4772768020629883 -1.2911498546600342 255 255 255
6.537683486938477 1.5091551542282104 -1.2696462869644165 255 255 255
6.400026798248291 1.5087881088256836 -1.1748360395431519 255 255 255
6.571735382080078 1.4535518884658813 -1.2456742525100708 255 255 255
6.545468807220459 1.5103447437286377 -1.055458664894104 255 255 255
6.478985786437988 1.5332162380218506 -1.2115200757980347 255 255 255
6.457135200500488 1.6091877222061157 -1.1825112104415894 255 255 255
6.518661975860596 1.5639090538024902 -1.1989248991012573 255 255 255
6.464347839355469 1.5141806602478027 -1.1182862520217896 255 255 255
6.529304504394531 1.6130023002624512 -1.158592700958252 255 255 255
6.4922590255737305 1.6521966457366943 -1.1689475774765015 255 255 255
6.568091869354248 1.7442371845245361 -1.2177393436431885 255 255 255
6.492581367492676 1.6589293479919434 -1.2557774782180786 255 255 255
6.53175163269043 1.7550548315048218 -1.1528829336166382 255 255 255
6.573160171508789 1.8079689741134644 -1.1575847864151 255 255 255
6.543059825897217 1.7359695434570312 -1.2151992321014404 255 255 255
6.6080427169799805 1.70460844039917 -1.2091302871704102 255 255 255
6.457377910614014 1.8665657043457031 -1.1276179552078247 255 255 255
6.34748649597168 1.6838834285736084 -1.0713164806365967 255 255 255
5.276155471801758 1.4043927192687988 -0.9912304282188416 255 255 255
5.121097087860107 1.3169769048690796 -0.885430634021759 255 255 255
5.105699062347412 1.4725013971328735 -0.8285415768623352 255 255 255
5.0117363929748535 1.5292885303497314 -0.8380445241928101 255 255 255
5.098649501800537 1.5666484832763672 -0.8692799210548401 255 255 255
5.160208702087402 1.535142421722412 -0.8348760008811951 255 255 255
5.041833877563477 1.4617418050765991 -0.9038974046707153 255 255 255
4.91372537612915 1.4969384670257568 -0.9419000148773193 255 255 255
4.850081920623779 1.3607922792434692 -0.8177464604377747 255 255 255
4.917115688323975 1.4844996929168701 -0.8210277557373047 255 255 255
4.885391712188721 1.5973318815231323 -0.7941139936447144 255 255 255
4.8811750411987305 1.4683762788772583 -0.739366888999939 255 255 255
4.809437274932861 1.5840703248977661 -0.9108688831329346 255 255 255
4.7721171379089355 1.5803660154342651 -0.8557122349739075 255 255 255
4.824204921722412 1.5808558464050293 -0.8239480257034302 255 255 255
4.72772216796875 1.565345048904419 -0.8907831907272339 255 255 255
4.778275489807129 1.6232185363769531 -0.8053287267684937 255 255 255
4.776015281677246 1.5387089252471924 -0.9301158785820007 255 255 255
4.63641881942749 1.5479114055633545 -0.830634355545044 255 255 255
4.665590763092041 1.501965045928955 -0.8402419090270996 255 255 255
4.688230037689209 1.5680389404296875 -0.8702532649040222 255 255 255
4.649497985839844 1.5326436758041382 -0.7970862984657288 255 255 255
4.655179977416992 1.5912256240844727 -0.7720481157302856 255 255 255
4.549953460693359 1.6567823886871338 -0.7827715277671814 255 255 255
4.550617218017578 1.6163259744644165 -0.8770495057106018 255 255 255
4.534848690032959 1.5394980907440186 -0.8737071752548218 255 255 255
4.603179454803467 1.6334128379821777 -0.7802187204360962 255 255 255
4.424061298370361 1.651558518409729 -0.8297163248062134 255 255 255
4.514251232147217 1.6149137020111084 -0.8109681606292725 255 255 255
4.428338527679443 1.6877061128616333 -0.8517342209815979 255 255 255
4.447602272033691 1.6477758884429932 -0.8225396275520325 255 255 255
4.4715352058410645 1.6541175842285156 -0.8039183020591736 255 255 255
4.453981876373291 1.659720540046692 -0.7944748401641846 255 255 255
4.385177135467529 1.7586076259613037 -0.734029233455658 255 255 255
4.47452449798584 1.7105779647827148 -0.8919696807861328 255 255 255
4.401029109954834 1.5916939973831177 -0.7434465289115906 255 255 255
4.322565078735352 1.687427282333374 -0.7263698577880859 255 255 255
4.372923374176025 1.637929081916809 -0.7488868832588196 255 255 255
4.389880180358887 1.8123562335968018 -0.8030627965927124 255 255 255
4.222614765167236 1.6913871765136719 -0.7277436256408691 255 255 255
4.235893726348877 1.7762634754180908 -0.7999193668365479 255 255 255
4.239096164703369 1.7156001329421997 -0.8314213752746582 255 255 255
4.168057918548584 1.7649587392807007 -0.7264613509178162 255 255 255
4.222668170928955 1.723914384841919 -0.795170783996582 255 255 255
4.151241302490234 1.8412556648254395 -0.6487658023834229 255 255 255
4.078797340393066 1.6839240789413452 -0.8319286704063416 255 255 255
4.058960914611816 1.7025715112686157 -0.7080020308494568 255 255 255
4.084521293640137 1.8134407997131348 -0.7514687776565552 255 255 255
4.048390865325928 1.7246453762054443 -0.7507224082946777 255 255 255
4.078952789306641 1.815909504890442 -0.800471842288971 255 255 255
4.028502941131592 1.8156976699829102 -0.737951934337616 255 255 255
4.163065433502197 1.782210350036621 -0.7207417488098145 255 255 255
3.9064736366271973 1.8006975650787354 -0.7179047465324402 255 255 255
3.9823954105377197 1.8060355186462402 -0.7096744775772095 255 255 255
3.938215494155884 1.7795547246932983 -0.6905943155288696 255 255 255
4.058261871337891 1.7497131824493408 -0.6994397044181824 255 255 255
3.513838768005371 1.9698938131332397 -0.7144486308097839 255 255 255
3.477229595184326 2.0240631103515625 -0.6100430488586426 255 255 255
3.4113540649414062 2.0234220027923584 -0.6492824554443359 255 255 255
3.4139981269836426 2.006387710571289 -0.6900371313095093 255 255 255
3.4537746906280518 2.0319933891296387 -0.524380624294281 255 255 255
3.396984338760376 1.9752851724624634 -0.6378160119056702 255 255 255
3.472468852996826 2.002429962158203 -0.7383205890655518 255 255 255
3.319319009780884 1.9764201641082764 -0.5981982350349426 255 255 255
3.493483781814575 2.1438822746276855 -0.720489501953125 255 255 255
3.6307175159454346 2.2017788887023926 -0.6749566197395325 255 255 255
7.208503246307373 -6.51633358001709 -1.8536473512649536 255 255 255
7.392480373382568 -6.49257755279541 -1.761265516281128 255 255 255
7.400096893310547 -6.563682556152344 -1.8369196653366089 255 255 255
4.895781993865967 -4.209244251251221 -1.1153002977371216 255 255 255
4.828126430511475 -4.019951820373535 -1.1169017553329468 255 255 255
4.833921432495117 -4.09768533706665 -1.1916491985321045 255 255 255
4.763021469116211 -4.09495735168457 -1.106042504310608 255 255 255
4.872010707855225 -4.053511142730713 -1.1422513723373413 255 255 255
4.86989688873291 -4.070673942565918 -1.1036103963851929 255 255 255
4.9080891609191895 -4.023193359375 -1.0840046405792236 255 255 255
4.778858184814453 -4.102048873901367 -1.0586163997650146 255 255 255
4.782424449920654 -3.9748289585113525 -1.0098334550857544 255 255 255
4.747225284576416 -3.9424123764038086 -1.0848164558410645 255 255 255
4.807085037231445 -3.926727771759033 -1.1163116693496704 255 255 255
4.955401420593262 -4.139562129974365 -1.1043931245803833 255 255 255
4.956518173217773 -4.0240068435668945 -1.1541475057601929 255 255 255
4.981014251708984 -3.926264762878418 -1.0150177478790283 255 255 255
5.03546142578125 -3.8723957538604736 -1.0501774549484253 255 255 255
4.886455535888672 -3.8385562896728516 -1.0443775653839111 255 255 255
4.946432113647461 -3.979066848754883 -1.140552043914795 255 255 255
4.979856014251709 -3.8759593963623047 -1.0954890251159668 255 255 255
4.954390048980713 -3.9058361053466797 -1.0887161493301392 255 255 255
4.912855625152588 -3.8852899074554443 -1.0835661888122559 255 255 255
5.000889778137207 -3.750985860824585 -1.027871012687683 255 255 255
5.110774517059326 -3.725069284439087 -1.1495763063430786 255 255 255
4.96687126159668 -3.642202377319336 -1.0597373247146606 255 255 255
4.964927673339844 -3.5503437519073486 -1.1370970010757446 255 255 255
5.013419151306152 -3.62674880027771 -1.0364781618118286 255 255 255
4.901568412780762 -3.6255664825439453 -0.9978055357933044 255 255 255
5.050093650817871 -3.2930691242218018 -1.048980474472046 255 255 255
5.067025184631348 -3.3462905883789062 -1.0325521230697632 255 255 255
5.0622358322143555 -3.3008158206939697 -1.0885913372039795 255 255 255
5.1064534187316895 -3.354445695877075 -1.0039254426956177 255 255 255
5.0820770263671875 -3.19059157371521 -0.9945670366287231 255 255 255
5.061078071594238 -3.3448596000671387 -1.0350404977798462 255 255 255
5.077408313751221 -3.333683729171753 -1.0696645975112915 255 255 255
5.237973213195801 -3.308389663696289 -0.975326418876648 255 255 255
5.079470157623291 -3.3147780895233154 -1.1611462831497192 255 255 255
5.081447601318359 -3.3192739486694336 -1.0664701461791992 255 255 255
5.075150966644287 -3.1692724227905273 -1.1241430044174194 255 255 255
5.190568923950195 -3.1955807209014893 -1.0883969068527222 255 255 255
5.141042709350586 -3.2368955612182617 -0.9888713955879211 255 255 255
5.180461406707764 -3.2271196842193604 -1.0107061862945557 255 255 255
5.083527565002441 -3.2404229640960693 -1.0533791780471802 255 255 255
5.184786796569824 -3.1364481449127197 -1.0623348951339722 255 255 255
5.189502716064453 -3.141766309738159 -1.0574593544006348 255 255 255
5.111311435699463 -3.1072492599487305 -1.0594369173049927 255 255 255
5.120477676391602 -3.0624172687530518 -1.1123180389404297 255 255 255
5.144892692565918 -3.0997114181518555 -1.0938681364059448 255 255 255
5.185401916503906 -3.0813748836517334 -1.0217921733856201 255 255 255
5.211459636688232 -2.9884016513824463 -1.0218141078948975 255 255 255
5.286159992218018 -3.1159756183624268 -1.1093822717666626 255 255 255
7.251476764678955 -3.7560677528381348 -1.5449341535568237 255 255 255
7.6457014083862305 -3.8480043411254883 -1.529516577720642 255 255 255
7.552567958831787 -3.7619712352752686 -1.5043708086013794 255 255 255
7.718677997589111 -3.8606460094451904 -1.5876659154891968 255 255 255
7.77987003326416 -3.8284552097320557 -1.5364140272140503 255 255 255
8.826933860778809 -4.3307671546936035 -1.8284058570861816 255 255 255
8.734766960144043 -4.161531448364258 -1.732441782951355 255 255 255
8.775151252746582 -4.177168369293213 -1.8003795146942139 255 255 255
8.852313995361328 -4.187989234924316 -1.7498663663864136 255 255 255
8.754989624023438 -4.114305019378662 -1.7077975273132324 255 255 255
8.875737190246582 -4.058468818664551 -1.7008388042449951 255 255 255
8.862715721130371 -4.069098949432373 -1.8251172304153442 255 255 255
8.87791919708252 -4.013301372528076 -1.7893004417419434 255 255 255
8.759452819824219 -4.024993419647217 -1.7268054485321045 255 255 255
8.895228385925293 -4.017185211181641 -1.7294952869415283 255 255 255
8.769922256469727 -3.9441418647766113 -1.693601131439209 255 255 255
8.904680252075195 -3.9191362857818604 -1.746992588043213 255 255 255
8.861720085144043 -3.9192357063293457 -1.838705062866211 255 255 255
8.971571922302246 -3.8311402797698975 -1.6780192852020264 255 255 255
8.791129112243652 -3.8729190826416016 -1.771179437637329 255 255 255
8.833663940429688 -3.7067790031433105 -1.6920809745788574 255 255 255
8.870423316955566 -3.7374837398529053 -1.7415730953216553 255 255 255
8.929369926452637 -3.787860631942749 -1.7269023656845093 255 255 255
8.953670501708984 -3.746429920196533 -1.8100688457489014 255 255 255
8.921797752380371 -3.710188865661621 -1.7584327459335327 255 255 255
8.909127235412598 -3.5895919799804688 -1.7539139986038208 255 255 255
8.969531059265137 -3.620142936706543 -1.6881721019744873 255 255 255
8.903383255004883 -3.7380335330963135 -1.6751539707183838 255 255 255
8.890739440917969 -3.5369670391082764 -1.7486733198165894 255 255 255
8.968597412109375 -3.5984983444213867 -1.7418404817581177 255 255 255
8.90772819519043 -3.574634552001953 -1.7000981569290161 255 255 255
8.877171516418457 -3.5147764682769775 -1.6170861721038818 255 255 255
8.868918418884277 -3.4987025260925293 -1.836888074874878 255 255 255
8.934127807617188 -3.4491491317749023 -1.7017128467559814 255 255 255
8.923521041870117 -3.4331042766571045 -1.7503397464752197 255 255 255
9.01059627532959 -3.4472591876983643 -1.7229317426681519 255 255 255
8.974908828735352 -3.3996989727020264 -1.7687984704971313 255 255 255
8.871023178100586 -3.403864622116089 -1.6832544803619385 255 255 255
8.944809913635254 -3.2872447967529297 -1.7704384326934814 255 255 255
8.976571083068848 -3.2766029834747314 -1.7270641326904297 255 255 255
8.956582069396973 -3.327340841293335 -1.7339959144592285 255 255 255
9.0007963180542 -3.2146365642547607 -1.78079354763031 255 255 255
9.025114059448242 -3.314913272857666 -1.8046287298202515 255 255 255
8.972387313842773 -3.203728199005127 -1.6578078269958496 255 255 255
9.056273460388184 -3.1525719165802 -1.7111879587173462 255 255 255
9.092057228088379 -3.1701316833496094 -1.738321304321289 255 255 255
8.971186637878418 -3.173835039138794 -1.6761168241500854 255 255 255
8.96540355682373 -3.157160758972168 -1.6987152099609375 255 255 255
9.03082275390625 -3.0757997035980225 -1.7168707847595215 255 255 255
8.99614143371582 -3.0018389225006104 -1.7275567054748535 255 255 255
9.087775230407715 -2.9335811138153076 -1.6959949731826782 255 255 255
9.12964916229248 -2.93758225440979 -1.7970337867736816 255 255 255
8.963053703308105 -2.9109294414520264 -1.7220789194107056 255 255 255
9.001277923583984 -2.850987195968628 -1.7018698453903198 255 255 255
9.155586242675781 -2.91808819770813 -1.7185842990875244 255 255 255
9.039690971374512 -2.859158992767334 -1.7591410875320435 255 255 255
9.073158264160156 -2.782371759414673 -1.71431303024292 255 255 255
9.081660270690918 -2.832742691040039 -1.7333285808563232 255 255 255
9.077164649963379 -2.7775487899780273 -1.648953914642334 255 255 255
9.08981990814209 -2.7339251041412354 -1.8098243474960327 255 255 255
9.072957992553711 -2.728480100631714 -1.6709189414978027 255 255 255
9.019346237182617 -2.6934826374053955 -1.7114769220352173 255 255 255
9.11764144897461 -2.6475207805633545 -1.7709779739379883 255 255 255
9.077485084533691 -2.7242958545684814 -1.7181832790374756 255 255 255
9.09642219543457 -2.6191587448120117 -1.7595475912094116 255 255 255
9.060606956481934 -2.565905809402466 -1.7420449256896973 255 255 255
9.030973434448242 -2.5261147022247314 -1.7551498413085938 255 255 255
9.014748573303223 -2.585627317428589 -1.7380353212356567 255 255 255
9.131315231323242 -2.5229198932647705 -1.6283222436904907 255 255 255
9.007674217224121 -2.4525046348571777 -1.6380618810653687 255 255 255
9.084153175354004 -2.5503878593444824 -1.6539373397827148 255 255 255
9.140932083129883 -2.4079227447509766 -1.6427927017211914 255 255 255
9.080625534057617 -2.461446523666382 -1.6765568256378174 255 255 255
9.17025375366211 -2.3985435962677 -1.661317229270935 255 255 255
9.16396713256836 -2.3336474895477295 -1.6203805208206177 255 255 255
9.146697998046875 -2.386824369430542 -1.6597188711166382 255 255 255
9.108845710754395 -2.2126426696777344 -1.6610952615737915 255 255 255
9.126381874084473 -2.2336502075195312 -1.7450345754623413 255 255 255
9.01773738861084 -2.2674288749694824 -1.7058225870132446 255 255 255
9.100671768188477 -2.2640154361724854 -1.784987449645996 255 255 255
9.103631019592285 -2.1641223430633545 -1.602115511894226 255 255 255
9.205232620239258 -2.188331365585327 -1.7423993349075317 255 255 255
9.04045581817627 -2.0586390495300293 -1.619031548500061 255 255 255
9.080464363098145 -2.128208637237549 -1.7517814636230469 255 255 255
9.218958854675293 -2.2023818492889404 -1.6878775358200073 255 255 255
9.191496849060059 -2.0486090183258057 -1.6992870569229126 255 255 255
9.133535385131836 -1.9697173833847046 -1.603841781616211 255 255 255
9.19418716430664 -1.9836773872375488 -1.6660720109939575 255 255 255
9.092665672302246 -2.0063111782073975 -1.6644843816757202 255 255 255
9.094017028808594 -1.9390017986297607 -1.6946111917495728 255 255 255
9.073918342590332 -1.875961184501648 -1.735065221786499 255 255 255
9.175653457641602 -1.8542619943618774 -1.6367671489715576 255 255 255
9.15719223022461 -1.8440419435501099 -1.5510051250457764 255 255 255
9.076360702514648 -1.7714272737503052 -1.681144118309021 255 255 255
9.086071968078613 -1.809287667274475 -1.7326534986495972 255 255 255
9.067708015441895 -1.841040849685669 -1.6049138307571411 255 255 255
9.153875350952148 -1.7240370512008667 -1.7884833812713623 255 255 255
9.138492584228516 -1.7815601825714111 -1.7124162912368774 255 255 255
9.143133163452148 -1.663888692855835 -1.6806704998016357 255 255 255
9.1223783493042 -1.6103134155273438 -1.6462376117706299 255 255 255
9.204787254333496 -1.6772464513778687 -1.718382477760315 255 255 255
9.10157585144043 -1.6304508447647095 -1.7380540370941162 255 255 255
9.049171447753906 -1.6041905879974365 -1.7578924894332886 255 255 255
9.112529754638672 -1.5288021564483643 -1.7386391162872314 255 255 255
9.089127540588379 -1.4702143669128418 -1.7329387664794922 255 255 255
9.102127075195312 -1.3861578702926636 -1.713962197303772 255 255 255
9.119553565979004 -1.4579998254776 -1.7029930353164673 255 255 255
9.02419376373291 -1.3985965251922607 -1.5437424182891846 255 255 255
9.11824893951416 -1.3291923999786377 -1.6646326780319214 255 255 255
9.175673484802246 -1.433226466178894 -1.7103997468948364 255 255 255
9.129051208496094 -1.374951720237732 -1.5934977531433105 255 255 255
9.090588569641113 -1.271946907043457 -1.7434866428375244 255 255 255
9.133115768432617 -1.298247218132019 -1.6257394552230835 255 255 255
9.086873054504395 -1.3703951835632324 -1.5800446271896362 255 255 255
9.186042785644531 -1.279152512550354 -1.6713365316390991 255 255 255
9.093266487121582 -1.2680991888046265 -1.537246584892273 255 255 255
9.075084686279297 -1.1831670999526978 -1.7126145362854004 255 255 255
9.049270629882812 -1.199392318725586 -1.64223051071167 255 255 255
9.145288467407227 -1.0669792890548706 -1.6679223775863647 255 255 255
9.136640548706055 -1.0464462041854858 -1.5172237157821655 255 255 255
9.044109344482422 -1.0405558347702026 -1.621309518814087 255 255 255
9.118438720703125 -1.0277431011199951 -1.6285127401351929 255 255 255
9.051759719848633 -1.0486798286437988 -1.5760563611984253 255 255 255
9.091278076171875 -0.9467270970344543 -1.7002941370010376 255 255 255
9.079548835754395 -0.9627180695533752 -1.6687402725219727 255 255 255
9.085027694702148 -0.9504939317703247 -1.6321630477905273 255 255 255
9.099105834960938 -0.8521711826324463 -1.5943878889083862 255 255 255
9.028346061706543 -0.967149555683136 -1.6617138385772705 255 255 255
9.183708190917969 -0.8454307317733765 -1.6182254552841187 255 255 255
9.056589126586914 -0.8014046549797058 -1.5751456022262573 255 255 255
9.114781379699707 -0.7904763221740723 -1.6938331127166748 255 255 255
9.117973327636719 -0.7023714184761047 -1.647473931312561 255 255 255
9.08778190612793 -0.7423688173294067 -1.6282050609588623 255 255 255
9.11342716217041 -0.6905038952827454 -1.5421277284622192 255 255 255
9.094496726989746 -0.6095083951950073 -1.6521846055984497 255 255 255
9.141841888427734 -0.7347556948661804 -1.603898525238037 255 255 255
8.989270210266113 -0.66566401720047 -1.6669257879257202 255 255 255
9.088464736938477 -0.6496961712837219 -1.6180049180984497 255 255 255
9.071870803833008 -0.6051917672157288 -1.6085280179977417 255 255 255
8.991195678710938 -0.5960121154785156 -1.5810467004776 255 255 255
8.971467018127441 -0.5128946900367737 -1.6402976512908936 255 255 255
8.980583190917969 -0.5687351822853088 -1.5926673412322998 255 255 255
9.109623908996582 -0.46720176935195923 -1.5816903114318848 255 255 255
8.965169906616211 -0.47072550654411316 -1.6199078559875488 255 255 255
9.001745223999023 -0.38226088881492615 -1.6323421001434326 255 255 255
9.02397346496582 -0.46197471022605896 -1.6597180366516113 255 255 255
9.008687973022461 -0.3064558804035187 -1.5792412757873535 255 255 255
9.04185962677002 -0.28197336196899414 -1.6451724767684937 255 255 255
8.989374160766602 -0.3852101266384125 -1.5673812627792358 255 255 255
8.53283977508545 -0.2994484007358551 -1.619537591934204 255 255 255
8.464553833007812 -0.2126253843307495 -1.606415867805481 255 255 255
8.509560585021973 -0.22425051033496857 -1.7414071559906006 255 255 255
8.512860298156738 -0.22389106452465057 -1.649251937866211 255 255 255
8.492853164672852 -0.20309486985206604 -1.576291799545288 255 255 255
8.460358619689941 -0.11256678402423859 -1.5963486433029175 255 255 255
8.520646095275879 -0.23232093453407288 -1.6561001539230347 255 255 255
8.378474235534668 -0.1329561173915863 -1.684967279434204 255 255 255
8.50196361541748 -0.17748136818408966 -1.5257021188735962 255 255 255
8.446419715881348 -0.07229839265346527 -1.5837020874023438 255 255 255
8.447736740112305 -0.14832817018032074 -1.5652334690093994 255 255 255
8.441315650939941 -0.0671757236123085 -1.644299030303955 255 255 255
8.443422317504883 0.07772895693778992 -1.6833457946777344 255 255 255
8.394861221313477 0.03427714854478836 -1.6302345991134644 255 255 255
8.526300430297852 0.02452382631599903 -1.625707983970642 255 255 255
8.312122344970703 -0.0010322900488972664 -1.7361379861831665 255 255 255
8.475068092346191 0.15607105195522308 -1.4928944110870361 255 255 255
8.444886207580566 0.11167684942483902 -1.6672897338867188 255 255 255
8.402385711669922 0.19952571392059326 -1.6391618251800537 255 255 255
8.307555198669434 0.18526184558868408 -1.6675081253051758 255 255 255
8.42726993560791 0.2554166913032532 -1.5886249542236328 255 255 255
8.360066413879395 0.2032352238893509 -1.5474376678466797 255 255 255
8.39008617401123 0.2592795789241791 -1.5358469486236572 255 255 255
8.402393341064453 0.3081904649734497 -1.6076686382293701 255 255 255
8.427436828613281 0.23017702996730804 -1.5809063911437988 255 255 255
8.41232967376709 0.37802037596702576 -1.5190006494522095 255 255 255
8.422351837158203 0.35940250754356384 -1.6024388074874878 255 255 255
8.414552688598633 0.40129345655441284 -1.530097484588623 255 255 255
8.547218322753906 0.3585212528705597 -1.5302250385284424 255 255 255
8.397056579589844 0.26221156120300293 -1.5311886072158813 255 255 255
8.289109230041504 0.4806133210659027 -1.6772854328155518 255 255 255
8.247207641601562 0.4546264708042145 -1.6325421333312988 255 255 255
8.363041877746582 0.521682620048523 -1.6052404642105103 255 255 255
8.370307922363281 0.4603593051433563 -1.554386854171753 255 255 255
8.237998008728027 0.5712381601333618 -1.4975031614303589 255 255 255
8.224299430847168 0.6009315848350525 -1.560807228088379 255 255 255
7.286280632019043 0.4549857974052429 -1.3576595783233643 255 255 255
7.26676607131958 0.5121756792068481 -1.2873589992523193 255 255 255
7.302784442901611 0.5607194900512695 -1.3356212377548218 255 255 255
7.278204917907715 0.5531795024871826 -1.3640844821929932 255 255 255
7.187238693237305 0.536054253578186 -1.286441683769226 255 255 255
6.717642784118652 0.590822160243988 -1.375187635421753 255 255 255
6.714166164398193 0.6565893888473511 -1.2464354038238525 255 255 255
6.71031379699707 0.5924084782600403 -1.2771679162979126 255 255 255
6.732473850250244 0.7175923585891724 -1.3059008121490479 255 255 255
6.777238845825195 0.7004860043525696 -1.255413293838501 255 255 255
6.758467674255371 0.7467631101608276 -1.3389118909835815 255 255 255
6.770397186279297 0.6646953225135803 -1.249444842338562 255 255 255
6.607191562652588 0.6916050910949707 -1.2453129291534424 255 255 255
6.578952789306641 0.7107895016670227 -1.2514991760253906 255 255 255
6.549378395080566 0.661217212677002 -1.2711299657821655 255 255 255
6.4819254875183105 0.6363835334777832 -1.2960385084152222 255 255 255
6.5468831062316895 0.8547857403755188 -1.2473526000976562 255 255 255
6.49057149887085 0.8106522560119629 -1.1462960243225098 255 255 255
6.502967834472656 0.8587012887001038 -1.1977967023849487 255 255 255
6.43024206161499 0.8336710333824158 -1.2799283266067505 255 255 255
6.4282546043396 0.882276713848114 -1.2188611030578613 255 255 255
6.377751350402832 0.9552816152572632 -1.2099239826202393 255 255 255
6.388262748718262 0.869408369064331 -1.2712793350219727 255 255 255
6.317749977111816 0.8867397308349609 -1.1791770458221436 255 255 255
6.333924770355225 0.8672567009925842 -1.217459797859192 255 255 255
6.396668434143066 0.9906063079833984 -1.1278597116470337 255 255 255
6.427910327911377 0.971377968788147 -1.1601542234420776 255 255 255
6.358889579772949 1.0149213075637817 -1.2154521942138672 255 255 255
6.416782855987549 1.0004123449325562 -1.2497667074203491 255 255 255
6.352814674377441 1.0778725147247314 -1.187547206878662 255 255 255
6.385066986083984 0.9650760889053345 -1.251381278038025 255 255 255
6.379150867462158 1.0775333642959595 -1.254453182220459 255 255 255
6.398924350738525 1.00127112865448 -1.228385329246521 255 255 255
6.4399495124816895 1.0299811363220215 -1.2772551774978638 255 255 255
6.341220378875732 1.097724437713623 -1.1789822578430176 255 255 255
6.409320831298828 1.077022910118103 -1.2052825689315796 255 255 255
6.395438194274902 1.2157841920852661 -1.2967289686203003 255 255 255
6.324957370758057 1.1412607431411743 -1.2342365980148315 255 255 255
6.621669769287109 1.3362209796905518 -1.3032686710357666 255 255 255
6.515832901000977 1.1839065551757812 -1.2056890726089478 255 255 255
6.579992771148682 1.2818288803100586 -1.2278703451156616 255 255 255
6.618566513061523 1.1870373487472534 -1.248522162437439 255 255 255
6.432274341583252 1.3613027334213257 -1.1708619594573975 255 255 255
6.572074890136719 1.4007647037506104 -1.2499449253082275 255 255 255
6.518740653991699 1.43134343624115 -1.263662576675415 255 255 255
6.5261311531066895 1.2374330759048462 -1.1780859231948853 255 255 255
6.57113790512085 1.3640847206115723 -1.293424367904663 255 255 255
6.638436794281006 1.3660848140716553 -1.2554224729537964 255 255 255
6.522700309753418 1.3402910232543945 -1.2266334295272827 255 255 255
6.483532428741455 1.4952744245529175 -1.2692252397537231 255 255 255
6.504392623901367 1.3862736225128174 -1.2244511842727661 255 255 255
6.578881740570068 1.5323015451431274 -1.3055968284606934 255 255 255
6.547554969787598 1.4875705242156982 -1.1953696012496948 255 255 255
6.6656317710876465 1.5351985692977905 -1.2270410060882568 255 255 255
6.648813724517822 1.5686098337173462 -1.315652847290039 255 255 255
6.692326545715332 1.5648646354675293 -1.245841383934021 255 255 255
6.62843656539917 1.555592656135559 -1.2674057483673096 255 255 255
6.608521461486816 1.5869590044021606 -1.3601131439208984 255 255 255
6.687842845916748 1.5728278160095215 -1.2835019826889038 255 255 255
6.738627910614014 1.7477214336395264 -1.2868109941482544 255 255 255
6.778919219970703 1.666071891784668 -1.3027538061141968 255 255 255
6.659022331237793 1.729591965675354 -1.2836952209472656 255 255 255
6.64450216293335 1.7741450071334839 -1.2921291589736938 255 255 255
6.11772346496582 1.7363464832305908 -1.2805384397506714 255 255 255
5.211075782775879 1.3605493307113647 -1.0049275159835815 255 255 255
5.120631217956543 1.4856164455413818 -1.041032314300537 255 255 255
5.165517807006836 1.4475089311599731 -0.983144223690033 255 255 255
5.172133922576904 1.4055817127227783 -0.8693451285362244 255 255 255
5.086196422576904 1.3039953708648682 -0.9570816159248352 255 255 255
4.942756652832031 1.4391272068023682 -0.855426549911499 255 255 255
5.042092323303223 1.4542499780654907 -0.958564043045044 255 255 255
4.934966564178467 1.3948132991790771 -0.9630944132804871 255 255 255
4.868386268615723 1.428387999534607 -0.9320619106292725 255 255 255
4.909388542175293 1.480481505393982 -0.9348861575126648 255 255 255
4.8485636711120605 1.523950457572937 -0.9532530903816223 255 255 255
4.888246536254883 1.4020496606826782 -0.9220978021621704 255 255 255
4.873692989349365 1.4925038814544678 -0.9970816969871521 255 255 255
4.8390069007873535 1.5555925369262695 -0.845608115196228 255 255 255
4.713188171386719 1.5177435874938965 -0.9772024750709534 255 255 255
4.7538652420043945 1.6290132999420166 -0.9155935645103455 255 255 255
4.782278537750244 1.54277503490448 -0.9123629927635193 255 255 255
4.7725911140441895 1.6102994680404663 -0.9437626600265503 255 255 255
4.767334461212158 1.4914476871490479 -0.8786459565162659 255 255 255
4.648343086242676 1.5699148178100586 -1.0023999214172363 255 255 255
4.777148723602295 1.6187000274658203 -0.7852351069450378 255 255 255
4.689172267913818 1.5514765977859497 -0.9358764886856079 255 255 255
4.600070476531982 1.609911561012268 -0.8857293725013733 255 255 255
4.620589256286621 1.5469743013381958 -0.9843266606330872 255 255 255
4.45376443862915 1.7089720964431763 -0.8919740319252014 255 255 255
4.51646089553833 1.5866305828094482 -0.8768921494483948 255 255 255
4.64244270324707 1.5650699138641357 -0.8140934109687805 255 255 255
4.539041042327881 1.598206639289856 -0.9203663468360901 255 255 255
4.45986795425415 1.5989304780960083 -0.7605798244476318 255 255 255
4.498545169830322 1.680206537246704 -0.8266476392745972 255 255 255
4.553918838500977 1.625293254852295 -0.8873367309570312 255 255 255
4.355068206787109 1.7406681776046753 -0.8610875010490417 255 255 255
4.384324550628662 1.6697338819503784 -0.8944078683853149 255 255 255
4.365684986114502 1.6584795713424683 -0.8814820051193237 255 255 255
4.343550205230713 1.638475775718689 -0.8363497257232666 255 255 255
4.288724899291992 1.6184933185577393 -0.8733287453651428 255 255 255
4.324485778808594 1.6373229026794434 -0.8552296757698059 255 255 255
4.283874988555908 1.6604472398757935 -0.8491116166114807 255 255 255
4.260343551635742 1.6917366981506348 -0.9089301228523254 255 255 255
4.273747444152832 1.7663277387619019 -0.8496402502059937 255 255 255
4.264363765716553 1.6573185920715332 -0.8240865468978882 255 255 255
4.228725910186768 1.8051496744155884 -0.8043731451034546 255 255 255
4.283276557922363 1.701874017715454 -0.7479732632637024 255 255 255
4.183722496032715 1.7141332626342773 -0.7972071766853333 255 255 255
4.196612358093262 1.8236347436904907 -0.7922519445419312 255 255 255
4.137960433959961 1.8103870153427124 -0.8655381202697754 255 255 255
4.176810264587402 1.7565791606903076 -0.6746076345443726 255 255 255
4.135949611663818 1.8122681379318237 -0.7332518696784973 255 255 255
4.064669609069824 1.7492554187774658 -0.7840666174888611 255 255 255
4.132637023925781 1.6625090837478638 -0.7785223126411438 255 255 255
4.117171287536621 1.775604248046875 -0.7875074744224548 255 255 255
4.042484760284424 1.7517303228378296 -0.7895488739013672 255 255 255
3.9363019466400146 1.7529678344726562 -0.854656457901001 255 255 255
3.8860936164855957 1.697237253189087 -0.7827031016349792 255 255 255
4.013387680053711 1.8347142934799194 -0.747256875038147 255 255 255
3.964909553527832 1.8757643699645996 -0.7912441492080688 255 255 255
3.9644391536712646 1.7951176166534424 -0.7786655426025391 255 255 255
3.9355716705322266 1.7359446287155151 -0.8163595795631409 255 255 255
3.9599452018737793 1.7927021980285645 -0.7480496168136597 255 255 255
3.917879343032837 1.7378119230270386 -0.7004974484443665 255 255 255
3.810328245162964 1.8578349351882935 -0.6865946650505066 255 255 255
3.8445510864257812 1.7081083059310913 -0.7366589903831482 255 255 255
3.895961284637451 1.9116237163543701 -0.7061446905136108 255 255 255
3.851313829421997 1.8927688598632812 -0.679246187210083 255 255 255
3.8452584743499756 1.8910601139068604 -0.7715168595314026 255 255 255
3.908708333969116 1.872140884399414 -0.7547075748443604 255 255 255
3.7707529067993164 1.8194364309310913 -0.7111026048660278 255 255 255
