ply
format ascii 1.0
element vertex 690
property float x
property float y
property float z
property uchar red
property uchar green
property uchar blue
end_header
8.710626602172852 -4.0897440910339355 -1.8116168975830078 255 255 255
31.365739822387695 -9.750835418701172 -1.0819352865219116 255 255 255
13.339426040649414 -1.8924787044525146 -0.2119206339120865 255 255 255
9.207221031188965 -8.143619537353516 -0.033072397112846375 255 255 255
10.829977035522461 5.564560890197754 0.31063827872276306 255 255 255
7.023965358734131 -0.13800443708896637 -1.638026475906372 255 255 255
10.98222827911377 -8.833127975463867 -0.10557368397712708 255 255 255
6.652695655822754 4.044730186462402 0.10127376019954681 255 255 255
23.045883178710938 -13.664825439453125 -0.779223620891571 255 255 255
4.9030232429504395 -3.639597177505493 -0.9996790289878845 255 255 255
8.328879356384277 -1.032580018043518 -1.6725467443466187 255 255 255
11.373550415039062 -9.32894515991211 0.5680699944496155 255 255 255
7.735419273376465 -0.058458417654037476 -0.8700779676437378 255 255 255
4.071711540222168 1.5714598894119263 -0.8035460710525513 255 255 255
6.539606094360352 0.8373647332191467 -1.2679318189620972 255 255 255
6.470926284790039 -2.9073052406311035 -1.7243411540985107 255 255 255
6.660385608673096 -0.2393217384815216 -1.6459709405899048 255 255 255
9.424297332763672 0.5344505310058594 -0.5131179094314575 255 255 255
31.483707427978516 -8.609782218933105 -0.39741358160972595 255 255 255
5.198691368103027 -3.5632519721984863 -0.38430485129356384 255 255 255
7.9390668869018555 -0.39634957909584045 -1.6205531358718872 255 255 255
12.679020881652832 -3.9712703227996826 -1.630279541015625 255 255 255
8.51738166809082 -2.113236904144287 -1.696718454360962 255 255 255
8.732723236083984 3.1247031688690186 -0.8211839199066162 255 255 255
13.834571838378906 5.470517635345459 -0.6343069076538086 255 255 255
12.266396522521973 -9.427227973937988 0.016806889325380325 255 255 255
9.097960472106934 3.177513599395752 -0.8306769132614136 255 255 255
8.427390098571777 -1.3682539463043213 -1.6449568271636963 255 255 255
18.039400100708008 -0.4981669783592224 -0.4744386374950409 255 255 255
9.001227378845215 -2.8436193466186523 -1.6758466958999634 255 255 255
4.938840866088867 1.2411410808563232 -0.9983010292053223 255 255 255
22.482189178466797 -7.849429607391357 -1.5910558700561523 255 255 255
9.650338172912598 2.652541399002075 -1.148505449295044 255 255 255
6.654185771942139 4.461575031280518 0.3670336604118347 255 255 255
3.781031370162964 2.548356294631958 -0.5584695339202881 255 255 255
7.781396389007568 -7.67564058303833 -1.1445645093917847 255 255 255
29.371782302856445 -7.683823108673096 -1.2372636795043945 255 255 255
21.69515037536621 -0.7183481454849243 0.2821352183818817 255 255 255
16.253643035888672 5.148810386657715 -0.4368791878223419 255 255 255
9.083577156066895 -1.7100942134857178 -1.6630662679672241 255 255 255
18.215438842773438 -10.020149230957031 -1.058786392211914 255 255 255
9.890626907348633 3.112396001815796 0.4473443329334259 255 255 255
19.59535026550293 3.666707754135132 0.7092670202255249 255 255 255
19.214330673217773 3.716665744781494 0.7667834758758545 255 255 255
19.139490127563477 3.8630661964416504 -0.42930805683135986 255 255 255
17.660490036010742 1.6225254535675049 -0.08870155364274979 255 255 255
4.085091590881348 1.7645552158355713 -0.2906470000743866 255 255 255
12.862102508544922 -2.1178927421569824 -0.7573666572570801 255 255 255
6.278982162475586 -0.7074651122093201 -1.592037558555603 255 255 255
6.774342060089111 1.5769141912460327 -0.7936232686042786 255 255 255
20.239181518554688 -11.984711647033691 1.0496008396148682 255 255 255
23.174867630004883 -13.673656463623047 -1.0561374425888062 255 255 255
12.96017074584961 -2.2898941040039062 -0.9771572947502136 255 255 255
21.92414093017578 -13.432112693786621 -0.6349261999130249 255 255 255
10.726070404052734 4.682150363922119 -0.7506601214408875 255 255 255
7.201892852783203 -3.042877197265625 -1.7491133213043213 255 255 255
21.791353225708008 -2.0851850509643555 0.2691665589809418 255 255 255
7.136216163635254 -1.1375293731689453 -1.773152232170105 255 255 255
4.224127292633057 1.8066790103912354 -0.2640478014945984 255 255 255
17.52376937866211 -6.839511394500732 -1.6766626834869385 255 255 255
12.188262939453125 -2.039640188217163 -1.5323628187179565 255 255 255
31.07822608947754 -10.01644515991211 -1.4398497343063354 255 255 255
7.3950886726379395 -0.13938619196414948 -0.6670612096786499 255 255 255
17.257884979248047 1.3382306098937988 0.269076406955719 255 255 255
14.781437873840332 -2.1636130809783936 -1.5249344110488892 255 255 255
7.412842750549316 -1.349159598350525 -1.6289823055267334 255 255 255
14.924275398254395 -4.260769844055176 -1.5429140329360962 255 255 255
14.298724174499512 -5.974707126617432 -1.7169640064239502 255 255 255
9.407163619995117 -1.525264859199524 -1.5909100770950317 255 255 255
6.458461284637451 1.075707197189331 -0.9476224184036255 255 255 255
7.441606521606445 -1.8928096294403076 -1.7518665790557861 255 255 255
6.184704780578613 0.14447663724422455 -1.7571333646774292 255 255 255
7.610403537750244 0.09914977103471756 -1.1312917470932007 255 255 255
4.5748982429504395 -4.1722893714904785 -1.4071485996246338 255 255 255
3.4761269092559814 2.322037696838379 -0.22993813455104828 255 255 255
7.458200931549072 -2.929379940032959 -1.690342903137207 255 255 255
6.45374870300293 -1.8256855010986328 -1.5907162427902222 255 255 255
21.90037727355957 -1.2694416046142578 0.9681501984596252 255 255 255
8.551922798156738 -1.703436255455017 -1.607407808303833 255 255 255
5.176542282104492 -3.917313814163208 -0.4266580045223236 255 255 255
13.209228515625 3.240670919418335 -0.6649640798568726 255 255 255
14.936509132385254 -5.363168239593506 -1.540383219718933 255 255 255
4.878695487976074 -3.631143093109131 -0.7744360566139221 255 255 255
15.830631256103516 -10.76186466217041 -0.3171253204345703 255 255 255
18.483739852905273 4.022210121154785 0.19055470824241638 255 255 255
6.649853706359863 4.179685115814209 0.4845787584781647 255 255 255
4.823071479797363 -3.2881476879119873 -1.0002857446670532 255 255 255
9.262104034423828 -4.037252426147461 -1.755223274230957 255 255 255
8.312355995178223 0.231053426861763 -1.564674735069275 255 255 255
38.197181701660156 -21.741914749145508 0.20188798010349274 255 255 255
74.36292266845703 -20.79766082763672 1.8569954633712769 255 255 255
19.85089111328125 -8.280218124389648 -1.585543155670166 255 255 255
12.869412422180176 6.957431793212891 -0.8156437873840332 255 255 255
19.480487823486328 3.658578395843506 0.4455796778202057 255 255 255
4.8928914070129395 -4.0075249671936035 -0.9999489784240723 255 255 255
14.281166076660156 -4.793608665466309 -1.6056360006332397 255 255 255
26.106971740722656 -7.755343914031982 -1.473136067390442 255 255 255
7.729368686676025 5.371774196624756 0.4096319079399109 255 255 255
9.539032936096191 3.1335766315460205 0.5182751417160034 255 255 255
7.247713088989258 0.07958737015724182 -0.7596142292022705 255 255 255
6.502731800079346 0.8613243103027344 -1.564687967300415 255 255 255
9.798840522766113 -1.4889700412750244 -1.6196290254592896 255 255 255
35.795372009277344 -15.070777893066406 -1.6083824634552002 255 255 255
4.961971282958984 -3.4899983406066895 -0.9600247144699097 255 255 255
10.64333438873291 -8.890737533569336 0.3662790358066559 255 255 255
7.000969886779785 3.920452117919922 0.29660430550575256 255 255 255
19.479639053344727 3.693126678466797 -0.5295985341072083 255 255 255
6.2409186363220215 -0.5150632858276367 -1.7268348932266235 255 255 255
8.408041954040527 5.51077127456665 0.10921859741210938 255 255 255
6.795250415802002 4.327993392944336 -0.10342200845479965 255 255 255
14.95633602142334 -3.5974655151367188 -1.5536690950393677 255 255 255
9.757101058959961 -0.7724741697311401 -1.5778781175613403 255 255 255
16.48455047607422 -4.029429912567139 -1.604046106338501 255 255 255
39.08395004272461 -20.245601654052734 1.2932713031768799 255 255 255
7.385064125061035 -2.0493874549865723 -1.6278246641159058 255 255 255
5.236129283905029 -3.261324644088745 -0.9745702147483826 255 255 255
8.95946216583252 0.06693405658006668 -1.6653977632522583 255 255 255
7.0688395500183105 3.8713784217834473 0.2567993104457855 255 255 255
17.86780548095703 2.343430519104004 0.47563350200653076 255 255 255
7.58259391784668 -0.8258861899375916 -1.611634373664856 255 255 255
6.229965686798096 1.432119369506836 -1.173830270767212 255 255 255
8.852571487426758 -0.3750930726528168 -1.1594774723052979 255 255 255
15.593389511108398 -10.852362632751465 -0.9457260370254517 255 255 255
9.97998046875 2.4173054695129395 -0.9433462023735046 255 255 255
6.586845397949219 1.1944206953048706 -1.3324304819107056 255 255 255
17.96031951904297 0.2246193140745163 0.4802841544151306 255 255 255
12.334931373596191 4.060651779174805 -0.9415884017944336 255 255 255
10.661874771118164 2.251582384109497 -0.2866380512714386 255 255 255
16.38446617126465 5.06558895111084 -0.45142775774002075 255 255 255
11.537985801696777 -8.758506774902344 0.6881340146064758 255 255 255
7.034914016723633 4.004516124725342 0.1588212549686432 255 255 255
6.336148738861084 -0.6090419888496399 -1.609276294708252 255 255 255
12.17585563659668 -3.0013859272003174 -1.605900764465332 255 255 255
13.488107681274414 -1.5870897769927979 -0.14710286259651184 255 255 255
4.958707809448242 -4.001395225524902 -0.4688228368759155 255 255 255
8.689205169677734 -7.987203121185303 -1.369127631187439 255 255 255
10.740418434143066 2.82613468170166 0.5315414071083069 255 255 255
28.700031280517578 -6.990041255950928 -1.322296142578125 255 255 255
22.141931533813477 -5.7319817543029785 -1.4637418985366821 255 255 255
4.741363525390625 1.426234483718872 -0.9038236737251282 255 255 255
3.284064769744873 2.1196248531341553 -0.26991337537765503 255 255 255
31.901691436767578 -18.430068969726562 -0.09653634577989578 255 255 255
6.141712665557861 0.6334213018417358 -1.6448036432266235 255 255 255
9.30721378326416 -8.249666213989258 0.0700969472527504 255 255 255
7.506566047668457 -4.099897861480713 -1.638289451599121 255 255 255
13.106330871582031 -3.439744234085083 -1.6173416376113892 255 255 255
13.07142162322998 -1.1735061407089233 -1.0749611854553223 255 255 255
5.041985511779785 -3.699753522872925 -1.2614147663116455 255 255 255
18.63312530517578 4.0901408195495605 -0.4878659248352051 255 255 255
7.516761302947998 -3.4808785915374756 -1.7098569869995117 255 255 255
8.251755714416504 -1.0945123434066772 -1.652807593345642 255 255 255
16.718069076538086 -0.1874721646308899 -0.23840926587581635 255 255 255
7.986713409423828 -0.04930146783590317 -1.2431648969650269 255 255 255
16.1785831451416 5.180620193481445 -0.469929575920105 255 255 255
9.016744613647461 2.9098663330078125 -1.1918119192123413 255 255 255
18.505617141723633 -9.26342487335205 -0.6824443936347961 255 255 255
13.354998588562012 -0.9801914691925049 -0.7142279148101807 255 255 255
11.797904014587402 -9.259384155273438 -0.49742987751960754 255 255 255
15.339202880859375 5.232565879821777 -0.6790493726730347 255 255 255
20.347606658935547 3.1728477478027344 0.4227144122123718 255 255 255
74.21331024169922 -21.03272247314453 0.8762677311897278 255 255 255
4.5741658210754395 1.4994909763336182 -1.1156065464019775 255 255 255
24.107715606689453 -14.04450798034668 -1.7469727993011475 255 255 255
8.067742347717285 5.398260116577148 -0.11969521641731262 255 255 255
18.43701171875 -9.43478012084961 -0.8906422853469849 255 255 255
6.640814304351807 -1.080043911933899 -1.6738379001617432 255 255 255
10.002118110656738 4.356955528259277 0.46690982580184937 255 255 255
8.942277908325195 0.8098059296607971 -0.6122114658355713 255 255 255
7.597011566162109 -1.137584924697876 -1.7451304197311401 255 255 255
6.994140625 1.0022311210632324 -0.6226986050605774 255 255 255
6.799812316894531 -2.788115978240967 -1.838313341140747 255 255 255
3.660551071166992 2.009161949157715 -0.4573363661766052 255 255 255
13.823934555053711 -8.928950309753418 0.7998700141906738 255 255 255
18.030773162841797 4.384622573852539 -0.5508353114128113 255 255 255
3.5206210613250732 1.9852826595306396 -0.4600456655025482 255 255 255
9.851009368896484 -9.282278060913086 0.21618549525737762 255 255 255
17.446840286254883 4.509114742279053 -0.462226003408432 255 255 255
14.201659202575684 -2.7029330730438232 -0.8496300578117371 255 255 255
9.971728324890137 -8.61948299407959 -0.17636874318122864 255 255 255
38.25047302246094 -12.851567268371582 -1.31946861743927 255 255 255
12.104707717895508 -0.9879908561706543 -1.5613713264465332 255 255 255
12.2102632522583 -8.261950492858887 0.760393500328064 255 255 255
14.569308280944824 -2.0092029571533203 -0.5102711319923401 255 255 255
13.333564758300781 -0.9972305297851562 -0.7076537609100342 255 255 255
38.01353454589844 -21.581830978393555 0.09185643494129181 255 255 255
21.586505889892578 -0.3987688720226288 0.4416636824607849 255 255 255
15.47488021850586 2.237497329711914 0.38382765650749207 255 255 255
18.623350143432617 3.9571142196655273 0.7501735687255859 255 255 255
9.667040824890137 -3.847705364227295 -1.7215168476104736 255 255 255
16.67951202392578 -7.7623982429504395 -1.7187036275863647 255 255 255
11.214746475219727 -8.658294677734375 -0.004654484335333109 255 255 255
8.009210586547852 -2.9193172454833984 -1.692959189414978 255 255 255
9.637258529663086 -0.6390249729156494 -1.0602935552597046 255 255 255
6.59149169921875 0.6582510471343994 -1.562758445739746 255 255 255
6.569074630737305 -2.3822646141052246 -1.791861891746521 255 255 255
10.081722259521484 2.788378953933716 0.2790309190750122 255 255 255
6.444309234619141 -2.9851832389831543 -1.716131329536438 255 255 255
18.551563262939453 -1.1997178792953491 -0.6673679351806641 255 255 255
17.199962615966797 1.1573930978775024 -0.03923116251826286 255 255 255
10.397687911987305 3.8666744232177734 0.6278098821640015 255 255 255
9.520305633544922 -4.289620876312256 -1.6623015403747559 255 255 255
22.2924861907959 -13.460047721862793 -0.3401038348674774 255 255 255
16.193082809448242 5.943916320800781 -0.24564716219902039 255 255 255
6.94980001449585 -3.908421277999878 -0.856570839881897 255 255 255
6.510599136352539 -3.8598475456237793 -1.7433042526245117 255 255 255
10.75684928894043 -4.210517406463623 -1.7371959686279297 255 255 255
8.431707382202148 -0.4034806191921234 -0.8599324226379395 255 255 255
7.368826866149902 0.11912821233272552 -1.6898698806762695 255 255 255
14.630736351013184 6.7007975578308105 -0.26734229922294617 255 255 255
17.99692153930664 1.218713641166687 0.28790947794914246 255 255 255
12.144262313842773 -4.761083126068115 -1.6457830667495728 255 255 255
13.485912322998047 -1.0831345319747925 -0.4513462781906128 255 255 255
4.957769393920898 1.5522624254226685 -1.251702070236206 255 255 255
6.479382038116455 4.557387351989746 0.3953059911727905 255 255 255
9.402603149414062 2.694044351577759 -1.3371137380599976 255 255 255
3.547192335128784 1.997814655303955 -0.38040170073509216 255 255 255
12.457182884216309 4.134014129638672 -0.8797400593757629 255 255 255
3.5266146659851074 1.9315966367721558 -0.8589158058166504 255 255 255
18.59512710571289 0.046737190335989 0.10080697387456894 255 255 255
10.726247787475586 -1.3093878030776978 -1.604353904724121 255 255 255
6.692971229553223 0.0016417016740888357 -1.5661264657974243 255 255 255
44.06554412841797 -9.382589340209961 0.31009677052497864 255 255 255
8.905082702636719 -2.9082300662994385 -1.8417131900787354 255 255 255
12.517434120178223 -1.8277455568313599 -1.5311886072158813 255 255 255
22.032209396362305 -0.9780518412590027 0.08296111226081848 255 255 255
34.703250885009766 -8.055188179016113 -0.4116497337818146 255 255 255
9.282232284545898 2.677839994430542 -0.8805106282234192 255 255 255
13.860040664672852 5.541107654571533 -0.585516631603241 255 255 255
6.267145156860352 -1.0739109516143799 -1.6294153928756714 255 255 255
9.339393615722656 2.8123996257781982 -1.1355582475662231 255 255 255
32.75334548950195 -7.082172393798828 -0.9691027402877808 255 255 255
9.369548797607422 0.5021985769271851 -0.41940948367118835 255 255 255
7.421607494354248 -0.016235776245594025 -0.6320075988769531 255 255 255
7.959325790405273 -0.9841855764389038 -1.6311466693878174 255 255 255
21.496479034423828 -0.650808572769165 0.05477166548371315 255 255 255
3.665076494216919 1.8257577419281006 -0.8575468063354492 255 255 255
12.630895614624023 3.4484314918518066 -0.9594780206680298 255 255 255
4.697556972503662 -4.165009021759033 -1.057680606842041 255 255 255
11.035002708435059 2.1771488189697266 -0.6396672129631042 255 255 255
9.717341423034668 -1.5256978273391724 -1.6346714496612549 255 255 255
4.750241756439209 1.4784934520721436 -0.6188644170761108 255 255 255
11.91104507446289 -6.351700782775879 -1.766196608543396 255 255 255
3.781931161880493 1.8407386541366577 -0.195391446352005 255 255 255
15.936426162719727 5.72700309753418 -0.5288596749305725 255 255 255
18.513471603393555 -9.253850936889648 -0.7989379167556763 255 255 255
6.689767837524414 0.5407906174659729 -1.018548846244812 255 255 255
10.825956344604492 -8.421234130859375 0.009215570986270905 255 255 255
4.095461845397949 1.725982904434204 -0.7551262378692627 255 255 255
21.0189151763916 2.9673373699188232 -0.5987330079078674 255 255 255
6.275142192840576 -0.5682200789451599 -1.8011990785598755 255 255 255
13.303194046020508 -4.138115406036377 -1.6287059783935547 255 255 255
5.044417858123779 -3.49469256401062 -1.0333130359649658 255 255 255
18.016067504882812 1.5940219163894653 0.6492241024971008 255 255 255
13.697829246520996 -1.5556241273880005 -1.5528132915496826 255 255 255
8.828067779541016 -8.209108352661133 -0.4415096342563629 255 255 255
18.03436851501465 4.359700679779053 0.28822821378707886 255 255 255
6.5573625564575195 0.8019192218780518 -0.9807949066162109 255 255 255
6.189662933349609 -1.6752121448516846 -1.7657866477966309 255 255 255
12.648950576782227 3.7666971683502197 -0.9471078515052795 255 255 255
8.750734329223633 -0.3706270158290863 -0.6246755719184875 255 255 255
8.943385124206543 -0.5239822268486023 -0.976189374923706 255 255 255
20.81736183166504 -11.843362808227539 0.7963462471961975 255 255 255
7.314967632293701 -2.4681639671325684 -1.775565505027771 255 255 255
20.64991569519043 -5.194108009338379 -1.5366744995117188 255 255 255
3.795410633087158 1.7576833963394165 -0.7279001474380493 255 255 255
4.883545398712158 1.4125714302062988 -0.7522706389427185 255 255 255
8.351052284240723 -0.009412519633769989 -0.31940314173698425 255 255 255
5.269567489624023 1.270959496498108 -1.1656224727630615 255 255 255
4.868799209594727 -3.5396533012390137 -0.9753629565238953 255 255 255
6.737685203552246 -1.9509721994400024 -1.7541216611862183 255 255 255
6.919599533081055 3.978153944015503 0.14536400139331818 255 255 255
6.784555912017822 1.4673799276351929 -1.066104769706726 255 255 255
17.776901245117188 -8.800583839416504 -1.7186548709869385 255 255 255
5.125179290771484 -3.3735198974609375 -0.8846774697303772 255 255 255
6.878891468048096 -4.022098541259766 -1.78996741771698 255 255 255
9.009251594543457 -1.9146983623504639 -1.7209335565567017 255 255 255
9.641051292419434 -9.083558082580566 -0.18827132880687714 255 255 255
10.821520805358887 2.3598105907440186 -0.4130456745624542 255 255 255
10.511137962341309 3.528452157974243 0.06893421709537506 255 255 255
4.907588481903076 1.306660771369934 -0.8903836011886597 255 255 255
18.439109802246094 -4.5388312339782715 -1.5884548425674438 255 255 255
8.767414093017578 -8.157732009887695 -0.900688886642456 255 255 255
34.08919906616211 -10.899033546447754 -1.2681667804718018 255 255 255
6.702571392059326 1.2222810983657837 -0.6170176267623901 255 255 255
18.260683059692383 1.7271536588668823 0.27019456028938293 255 255 255
12.908592224121094 6.776950836181641 -0.8128617405891418 255 255 255
11.018508911132812 4.855218410491943 -0.591189444065094 255 255 255
11.383275032043457 5.509041786193848 0.5096731185913086 255 255 255
14.136752128601074 -6.78416633605957 -1.768265962600708 255 255 255
12.763778686523438 -9.324520111083984 0.09149658679962158 255 255 255
13.653462409973145 -1.5123589038848877 -1.5463061332702637 255 255 255
7.223695755004883 3.818058967590332 -0.16772997379302979 255 255 255
8.497005462646484 -1.3438663482666016 -1.6497166156768799 255 255 255
9.186323165893555 -4.265467166900635 -1.7569633722305298 255 255 255
14.159261703491211 -10.226072311401367 -0.6668410301208496 255 255 255
38.41543960571289 -20.898832321166992 1.4792829751968384 255 255 255
10.370125770568848 4.379052639007568 0.12300019711256027 255 255 255
3.5300707817077637 2.1793012619018555 -0.5098904967308044 255 255 255
4.765044212341309 1.342146873474121 -0.7507966160774231 255 255 255
24.417861938476562 -5.6106343269348145 -1.3298248052597046 255 255 255
19.454172134399414 3.70000958442688 0.6911464929580688 255 255 255
7.473954200744629 -4.023022651672363 -1.8267215490341187 255 255 255
37.82319259643555 -5.07298469543457 0.5562388300895691 255 255 255
6.3303542137146 -0.552352249622345 -1.5755051374435425 255 255 255
4.848006725311279 -3.6085727214813232 -1.2764835357666016 255 255 255
9.825644493103027 -2.8019964694976807 -1.692829966545105 255 255 255
12.944868087768555 -1.6557570695877075 -0.8916810750961304 255 255 255
6.786930561065674 -1.6618318557739258 -1.6634612083435059 255 255 255
41.766056060791016 -6.994261741638184 1.1775281429290771 255 255 255
16.832738876342773 -11.193624496459961 -0.9775218367576599 255 255 255
8.69051742553711 -4.449723243713379 -1.6857047080993652 255 255 255
12.995141983032227 7.0721354484558105 -0.7582082152366638 255 255 255
10.728487968444824 4.591351509094238 -0.35785773396492004 255 255 255
3.4252960681915283 1.87779700756073 -0.8329363465309143 255 255 255
6.442781448364258 0.29139241576194763 -1.6815893650054932 255 255 255
6.330716609954834 -3.4104812145233154 -1.823575496673584 255 255 255
14.200580596923828 -4.9847259521484375 -1.6573489904403687 255 255 255
6.098393440246582 0.8612737059593201 -1.725602149963379 255 255 255
7.015842437744141 -0.7458301186561584 -1.6231722831726074 255 255 255
4.290924549102783 1.5305250883102417 -0.9068382978439331 255 255 255
5.13698673248291 -3.30796480178833 -1.1731747388839722 255 255 255
12.492820739746094 -9.497655868530273 -0.9537202715873718 255 255 255
4.074605941772461 1.7349817752838135 -0.2805764973163605 255 255 255
10.224624633789062 -3.9181792736053467 -1.7840625047683716 255 255 255
8.950448036193848 2.830693006515503 -1.0226491689682007 255 255 255
39.467376708984375 -20.537412643432617 0.12079952657222748 255 255 255
5.016556739807129 1.2695766687393188 -0.9348483681678772 255 255 255
6.674378871917725 0.5120418071746826 -1.4606586694717407 255 255 255
7.822418212890625 -0.8199635148048401 -1.6368699073791504 255 255 255
10.862555503845215 -8.536161422729492 0.15294188261032104 255 255 255
6.671427249908447 1.4765504598617554 -1.118558406829834 255 255 255
13.150308609008789 -9.648858070373535 -0.9633059501647949 255 255 255
6.589148998260498 4.214874267578125 0.4085981845855713 255 255 255
14.847953796386719 -5.0568318367004395 -1.6659274101257324 255 255 255
13.761350631713867 -2.9790587425231934 -1.5630439519882202 255 255 255
9.829015731811523 3.7064473628997803 0.3089865446090698 255 255 255
11.159880638122559 -8.98701000213623 -0.3774043619632721 255 255 255
60.28526306152344 -28.8504695892334 2.01126766204834 255 255 255
18.14076042175293 -10.030366897583008 -1.5264168977737427 255 255 255
53.75777053833008 -12.566804885864258 0.8069865703582764 255 255 255
6.453455924987793 -1.7286440134048462 -1.75516676902771 255 255 255
13.172577857971191 -1.1483397483825684 -0.5074180960655212 255 255 255
18.477964401245117 -5.1654863357543945 -1.546895146369934 255 255 255
18.851581573486328 -9.065561294555664 -1.7283897399902344 255 255 255
31.542949676513672 -7.93802547454834 -1.3082393407821655 255 255 255
6.104427337646484 -3.6284639835357666 -1.4816828966140747 255 255 255
12.108195304870605 -1.8300379514694214 -1.5850454568862915 255 255 255
6.188201427459717 -2.175870895385742 -1.7822046279907227 255 255 255
12.633257865905762 -1.083451747894287 -1.5127114057540894 255 255 255
3.9058949947357178 1.6356109380722046 -1.0466476678848267 255 255 255
28.135629653930664 -15.940377235412598 -0.46384990215301514 255 255 255
3.5824549198150635 1.884140133857727 -0.2577398717403412 255 255 255
4.561009407043457 1.3973357677459717 -0.8139575123786926 255 255 255
7.0697407722473145 4.1030073165893555 -0.3096018433570862 255 255 255
6.6862287521362305 4.061703205108643 0.2799185812473297 255 255 255
7.390976428985596 -2.408428430557251 -1.747846245765686 255 255 255
9.43547248840332 3.6529812812805176 0.586079478263855 255 255 255
7.71558141708374 -2.9793436527252197 -1.6954739093780518 255 255 255
4.704138278961182 -4.131274223327637 -1.088265299797058 255 255 255
8.50987434387207 -0.5091413855552673 -1.551999807357788 255 255 255
7.205970764160156 -2.8597006797790527 -1.7147388458251953 255 255 255
3.7295286655426025 2.1304006576538086 -0.1598709225654602 255 255 255
19.353078842163086 -12.591675758361816 0.2436036318540573 255 255 255
4.683353900909424 -4.320756435394287 -0.8613022565841675 255 255 255
13.059765815734863 -5.692122459411621 -1.760745882987976 255 255 255
13.157926559448242 -2.3173537254333496 -1.6472281217575073 255 255 255
9.983701705932617 2.4198696613311768 -0.8450915217399597 255 255 255
12.187250137329102 -2.4071569442749023 -1.653512954711914 255 255 255
6.65355110168457 4.0091047286987305 0.2632412314414978 255 255 255
17.943273544311523 0.883384644985199 0.36084455251693726 255 255 255
49.16330337524414 -25.35826301574707 -0.5836939215660095 255 255 255
17.819122314453125 1.0710110664367676 0.2347877472639084 255 255 255
4.454356670379639 1.4647114276885986 -0.8519548773765564 255 255 255
18.26513671875 -11.72154712677002 -0.5405533313751221 255 255 255
6.769023895263672 1.432752251625061 -0.8400723338127136 255 255 255
18.940746307373047 3.917159080505371 -0.4856431186199188 255 255 255
13.421037673950195 -9.860243797302246 -0.7945486307144165 255 255 255
53.136905670166016 -26.64630699157715 2.1591217517852783 255 255 255
9.761878967285156 3.693622589111328 0.33529365062713623 255 255 255
12.255635261535645 -2.9348130226135254 -1.634049654006958 255 255 255
21.45530128479004 -0.7868874669075012 0.004568555857986212 255 255 255
16.336042404174805 6.230030536651611 0.3279074430465698 255 255 255
12.993391036987305 -5.806051254272461 -1.7625455856323242 255 255 255
13.293685913085938 3.311948299407959 -0.5166890025138855 255 255 255
9.078115463256836 -1.9846676588058472 -1.6139352321624756 255 255 255
18.6895694732666 -9.04876708984375 -0.8388674855232239 255 255 255
9.75486946105957 3.0494368076324463 0.3038172125816345 255 255 255
12.758251190185547 -8.837486267089844 0.5633779168128967 255 255 255
10.690316200256348 -9.08964729309082 0.6971182823181152 255 255 255
11.427006721496582 -5.3735737800598145 -1.7292110919952393 255 255 255
14.877195358276367 -7.194652557373047 -1.7185450792312622 255 255 255
53.98066329956055 -10.329991340637207 0.7341456413269043 255 255 255
10.432201385498047 3.171182155609131 0.09524528682231903 255 255 255
6.880854606628418 1.1769930124282837 -0.6386266350746155 255 255 255
13.002095222473145 -1.365520715713501 -1.1621699333190918 255 255 255
5.335255146026611 -3.745734930038452 -0.8569337129592896 255 255 255
26.569477081298828 -6.656678199768066 -1.4191426038742065 255 255 255
8.957854270935059 -8.049192428588867 -0.8622652292251587 255 255 255
10.719881057739258 4.822713851928711 -0.7350432872772217 255 255 255
6.52475643157959 1.3793359994888306 -1.0343509912490845 255 255 255
3.6860709190368652 2.1667864322662354 -0.020788511261343956 255 255 255
10.747584342956543 -1.1710864305496216 -1.6026285886764526 255 255 255
4.732521057128906 -4.040991306304932 -1.2386850118637085 255 255 255
18.730321884155273 -9.034664154052734 -0.9915734529495239 255 255 255
29.111074447631836 -16.146018981933594 -1.3718078136444092 255 255 255
12.647193908691406 -8.53174114227295 0.4119974374771118 255 255 255
15.407790184020996 1.6946135759353638 0.40210309624671936 255 255 255
21.683015823364258 -13.03524398803711 -1.6709843873977661 255 255 255
6.9168500900268555 0.33620524406433105 -0.6654611825942993 255 255 255
8.300366401672363 -7.720052719116211 -1.4346179962158203 255 255 255
9.38085651397705 -1.751267671585083 -1.5857309103012085 255 255 255
3.6289446353912354 1.9148939847946167 -0.8470279574394226 255 255 255
4.85374116897583 -3.8371734619140625 -0.9172678589820862 255 255 255
6.570450305938721 1.273282766342163 -0.9280694723129272 255 255 255
27.499805450439453 -4.159355163574219 -0.22004301846027374 255 255 255
8.487109184265137 -2.520073890686035 -1.651328206062317 255 255 255
34.691585540771484 -5.3702874183654785 1.167826771736145 255 255 255
4.68723201751709 -4.0466108322143555 -1.2573583126068115 255 255 255
22.612279891967773 -8.484331130981445 -1.5645204782485962 255 255 255
6.945211410522461 0.3265887200832367 -1.6025111675262451 255 255 255
4.657751560211182 -4.27352237701416 -0.609093427658081 255 255 255
15.308989524841309 -3.2061474323272705 -1.105482578277588 255 255 255
9.353309631347656 -4.999269962310791 -1.7414309978485107 255 255 255
7.588934421539307 -4.123641014099121 -1.5593245029449463 255 255 255
16.280414581298828 6.0724945068359375 -0.14312788844108582 255 255 255
13.196366310119629 -1.0996812582015991 -0.4055681526660919 255 255 255
36.74728775024414 -8.620820999145508 -0.18289591372013092 255 255 255
8.284027099609375 -7.851315021514893 -0.832527756690979 255 255 255
9.21597671508789 -0.507157027721405 -1.3121362924575806 255 255 255
7.592970371246338 -0.3327927589416504 -1.6782912015914917 255 255 255
18.10982322692871 4.245903491973877 0.9559560418128967 255 255 255
6.53983736038208 0.749590277671814 -1.5819391012191772 255 255 255
18.22562599182129 -10.087943077087402 -0.7016748785972595 255 255 255
12.468616485595703 -5.0362229347229 -1.7216852903366089 255 255 255
9.406172752380371 -3.0981712341308594 -1.6379680633544922 255 255 255
3.6299803256988525 2.0715606212615967 -0.20010854303836823 255 255 255
6.652242183685303 0.6454319953918457 -1.4229742288589478 255 255 255
7.0034942626953125 -0.13524359464645386 -1.6174067258834839 255 255 255
10.862956047058105 -1.3390007019042969 -1.6306743621826172 255 255 255
16.749107360839844 -11.179720878601074 -0.8179677724838257 255 255 255
7.9375739097595215 -0.114310123026371 -1.2048155069351196 255 255 255
20.80628776550293 -6.258678436279297 -1.5831888914108276 255 255 255
11.601407051086426 -5.232609272003174 -1.8317309617996216 255 255 255
6.695703029632568 1.0250383615493774 -0.8454520106315613 255 255 255
9.922649383544922 -9.571063995361328 0.46010228991508484 255 255 255
8.181379318237305 0.7514865398406982 -0.10053097456693649 255 255 255
18.600440979003906 -8.850340843200684 -0.8423118591308594 255 255 255
21.505474090576172 -1.7043805122375488 0.1322663426399231 255 255 255
14.197294235229492 -7.038157939910889 -1.700384259223938 255 255 255
7.852417469024658 -2.423225164413452 -1.6920795440673828 255 255 255
13.00379467010498 -1.8840323686599731 -1.5855169296264648 255 255 255
3.125041961669922 2.07157826423645 -0.694322407245636 255 255 255
8.238006591796875 -0.14060601592063904 -0.6871008276939392 255 255 255
6.731673717498779 4.232523441314697 0.25257930159568787 255 255 255
7.58221435546875 -2.580099105834961 -1.7114635705947876 255 255 255
6.52716588973999 0.6588443517684937 -0.900122880935669 255 255 255
7.543031692504883 0.07005384564399719 -0.8250722885131836 255 255 255
9.17772102355957 2.8528807163238525 -0.9421391487121582 255 255 255
21.455760955810547 -0.9501709342002869 0.08780527114868164 255 255 255
6.736567974090576 4.606443881988525 0.40620556473731995 255 255 255
6.4610676765441895 1.3909627199172974 -1.6206490993499756 255 255 255
5.130675315856934 -3.158470392227173 -1.2056756019592285 255 255 255
6.468530654907227 -0.9299673438072205 -1.6316765546798706 255 255 255
15.712137222290039 -4.877244472503662 -1.6227731704711914 255 255 255
13.138068199157715 -9.28666877746582 0.2118591070175171 255 255 255
29.54866600036621 -5.850661754608154 -0.5667534470558167 255 255 255
4.3485212326049805 1.58863365650177 -0.5466938018798828 255 255 255
16.243261337280273 -9.175853729248047 -1.603765845298767 255 255 255
9.64355182647705 -3.558422327041626 -1.8146650791168213 255 255 255
6.753352165222168 0.9422624707221985 -0.6963629126548767 255 255 255
18.89600944519043 3.4259891510009766 -0.8620493412017822 255 255 255
9.824252128601074 -8.561589241027832 -0.33795151114463806 255 255 255
9.072529792785645 -4.4716925621032715 -1.7013471126556396 255 255 255
14.279226303100586 -7.117982864379883 -1.8208673000335693 255 255 255
13.183940887451172 -3.8247807025909424 -1.6393715143203735 255 255 255
11.72558879852295 -4.60925817489624 -1.738745093345642 255 255 255
17.857393264770508 0.9143329858779907 0.21447739005088806 255 255 255
8.830872535705566 -8.221778869628906 -0.701867938041687 255 255 255
4.508823394775391 1.4622526168823242 -0.8030345439910889 255 255 255
18.6336669921875 -9.105866432189941 -1.4016504287719727 255 255 255
3.4209299087524414 1.8931493759155273 -0.8695557713508606 255 255 255
7.183484077453613 3.9513726234436035 -0.02426551654934883 255 255 255
35.1310920715332 -13.725303649902344 -1.4311423301696777 255 255 255
4.063840866088867 1.620904564857483 -0.8643425107002258 255 255 255
4.741886138916016 -3.941660165786743 -1.370794653892517 255 255 255
8.497580528259277 3.2950527667999268 -0.8094164729118347 255 255 255
38.820274353027344 -20.56641387939453 0.05953417345881462 255 255 255
4.002078533172607 1.7137556076049805 -0.6772629022598267 255 255 255
7.045088768005371 -3.8708207607269287 -0.8368984460830688 255 255 255
9.746796607971191 -2.6154088973999023 -1.7318531274795532 255 255 255
6.982766151428223 4.238585472106934 0.2758543789386749 255 255 255
7.086553573608398 3.8914167881011963 0.2730632722377777 255 255 255
31.176727294921875 -10.617271423339844 -1.5041885375976562 255 255 255
7.78439998626709 -2.9875361919403076 -1.765009880065918 255 255 255
51.45625305175781 -19.885669708251953 -1.3082109689712524 255 255 255
11.360045433044434 -8.992600440979004 -0.8478348255157471 255 255 255
13.285004615783691 -1.0518474578857422 -0.33763760328292847 255 255 255
9.047526359558105 -1.137149691581726 -1.6028990745544434 255 255 255
13.096563339233398 -1.4021621942520142 -0.8682740926742554 255 255 255
17.911209106445312 0.4115012586116791 0.7297562956809998 255 255 255
14.900313377380371 -7.787379264831543 -1.8258618116378784 255 255 255
6.293148040771484 -2.8366830348968506 -1.756437063217163 255 255 255
4.854042053222656 1.3446592092514038 -1.074456810951233 255 255 255
17.78649139404297 4.3848371505737305 0.6000850200653076 255 255 255
10.851274490356445 -8.746845245361328 -0.14178568124771118 255 255 255
7.949157238006592 0.4491269886493683 -1.5411934852600098 255 255 255
8.880916595458984 -3.942746162414551 -1.8350863456726074 255 255 255
17.40522003173828 -5.985588550567627 -1.5999557971954346 255 255 255
22.189590454101562 -2.2931876182556152 0.22079510986804962 255 255 255
4.065832614898682 1.6671464443206787 -0.8890675902366638 255 255 255
39.816036224365234 -10.001398086547852 -0.3608120083808899 255 255 255
6.907634735107422 -3.942070245742798 -1.7370940446853638 255 255 255
14.912193298339844 -4.429283142089844 -1.7579747438430786 255 255 255
13.794507026672363 -2.8780019283294678 -1.5273514986038208 255 255 255
74.04672241210938 -21.405067443847656 2.2776122093200684 255 255 255
14.05663776397705 5.420505523681641 -0.6855419278144836 255 255 255
15.297881126403809 -10.51810073852539 -0.2174011766910553 255 255 255
6.659019470214844 0.32345452904701233 -1.534383773803711 255 255 255
7.304516315460205 0.29352012276649475 -1.6676243543624878 255 255 255
7.653290271759033 -1.0496264696121216 -1.6503149271011353 255 255 255
73.56217193603516 -22.40264892578125 2.2454993724823 255 255 255
7.412209987640381 0.11737604439258575 -0.7732769846916199 255 255 255
10.089900970458984 -8.986757278442383 0.2940555214881897 255 255 255
8.777997016906738 2.951002836227417 -0.9113520383834839 255 255 255
19.49951171875 -12.633212089538574 0.17921295762062073 255 255 255
9.661550521850586 2.578373670578003 -1.021448016166687 255 255 255
17.639780044555664 -11.500584602355957 -1.2210557460784912 255 255 255
9.080133438110352 -2.0192208290100098 -1.6809613704681396 255 255 255
6.687498569488525 -3.346994400024414 -1.6800509691238403 255 255 255
8.573783874511719 -1.05042564868927 -1.6091368198394775 255 255 255
6.768150329589844 -1.6851577758789062 -1.6474944353103638 255 255 255
5.134679317474365 1.3621221780776978 -1.3440766334533691 255 255 255
20.668344497680664 3.1108782291412354 -0.03132285550236702 255 255 255
21.17513656616211 -12.726226806640625 -1.860007405281067 255 255 255
15.670185089111328 -3.302873134613037 -1.3398064374923706 255 255 255
9.379880905151367 -0.931084156036377 -1.6335333585739136 255 255 255
4.7085185050964355 -3.9216086864471436 -0.9218524694442749 255 255 255
14.030083656311035 -2.7415902614593506 -0.8799846768379211 255 255 255
11.759276390075684 -3.595604181289673 -1.727582335472107 255 255 255
28.57551383972168 -10.328269004821777 -1.5303188562393188 255 255 255
11.050732612609863 -8.97464656829834 -0.4674047529697418 255 255 255
6.9812703132629395 4.1773600578308105 -0.1744546890258789 255 255 255
3.1785271167755127 2.1845738887786865 -0.1930496245622635 255 255 255
8.32239818572998 0.07295148819684982 -1.5589882135391235 255 255 255
15.352529525756836 1.4475090503692627 0.5162105560302734 255 255 255
18.16431999206543 0.21549108624458313 0.7023247480392456 255 255 255
6.675820827484131 4.579411029815674 0.38428643345832825 255 255 255
6.935298442840576 4.12814998626709 -0.2424153983592987 255 255 255
8.350269317626953 0.7665393352508545 -0.0772007405757904 255 255 255
31.273855209350586 -11.132668495178223 -1.5004665851593018 255 255 255
3.602158784866333 2.061293840408325 -0.5342570543289185 255 255 255
8.782968521118164 -3.830376386642456 -1.7353554964065552 255 255 255
31.184825897216797 -10.500813484191895 -1.4848958253860474 255 255 255
4.806881427764893 1.3371503353118896 -0.7288893461227417 255 255 255
16.12582778930664 5.217082977294922 -0.4774673283100128 255 255 255
7.7285308837890625 -2.963115692138672 -1.7374334335327148 255 255 255
16.399490356445312 3.0895824432373047 -0.8288187384605408 255 255 255
73.05923461914062 -23.688232421875 0.983776867389679 255 255 255
18.476003646850586 -9.283369064331055 -1.3373271226882935 255 255 255
6.473150730133057 1.118625283241272 -1.5809837579727173 255 255 255
3.7418019771575928 1.8067442178726196 -0.8609172701835632 255 255 255
18.139694213867188 -12.312601089477539 -0.03561243787407875 255 255 255
17.28925895690918 8.59933090209961 0.031227534636855125 255 255 255
9.300310134887695 -8.410013198852539 -0.7580042481422424 255 255 255
7.651464462280273 -3.773761749267578 -1.7422144412994385 255 255 255
9.257145881652832 -8.170565605163574 -0.13603104650974274 255 255 255
3.658883810043335 1.8880422115325928 -0.20571660995483398 255 255 255
7.542591571807861 0.0846208781003952 -1.6514266729354858 255 255 255
13.611710548400879 -7.201786994934082 -1.7270185947418213 255 255 255
18.225278854370117 4.239364147186279 0.7695713639259338 255 255 255
52.66444778442383 -26.665559768676758 1.1246681213378906 255 255 255
22.702411651611328 -3.1682755947113037 0.8058534264564514 255 255 255
18.927350997924805 3.957794427871704 0.5120757818222046 255 255 255
10.466829299926758 -9.021133422851562 0.6106027364730835 255 255 255
68.78235626220703 -30.80792999267578 0.10768470913171768 255 255 255
4.935968399047852 2.1336586475372314 -0.5540221333503723 255 255 255
10.976390838623047 2.8359789848327637 0.12832187116146088 255 255 255
9.407971382141113 -0.663093626499176 -1.6206779479980469 255 255 255
6.5050048828125 -1.192604660987854 -1.6925506591796875 255 255 255
3.2052388191223145 2.174755334854126 -0.2080407440662384 255 255 255
5.335419654846191 -3.9119391441345215 -0.3512464463710785 255 255 255
9.751350402832031 -2.04642915725708 -1.609752893447876 255 255 255
5.675675868988037 -3.324592113494873 -1.5781984329223633 255 255 255
19.279232025146484 -12.701016426086426 0.04921302944421768 255 255 255
15.521854400634766 -3.24662184715271 -1.598750114440918 255 255 255
34.25116729736328 -4.640321731567383 0.7487144470214844 255 255 255
13.64029598236084 -2.5466880798339844 -0.8961166739463806 255 255 255
16.928375244140625 7.650440692901611 -0.003714135382324457 255 255 255
18.59181022644043 0.1532924622297287 0.09366004168987274 255 255 255
3.7970337867736816 1.6838419437408447 -0.9698648452758789 255 255 255
11.714639663696289 4.60457181930542 0.33609798550605774 255 255 255
6.792122840881348 -1.282043695449829 -1.720138430595398 255 255 255
6.426293849945068 0.9758684039115906 -1.0897914171218872 255 255 255
34.963722229003906 -5.486422538757324 0.7546511888504028 255 255 255
17.72441864013672 4.400941848754883 0.5504996180534363 255 255 255
6.454671382904053 -1.9958462715148926 -1.7152767181396484 255 255 255
4.898887634277344 -3.7719321250915527 -0.9794839024543762 255 255 255
4.814697265625 1.418920874595642 -1.0798404216766357 255 255 255
17.642507553100586 -11.722647666931152 -0.7955505847930908 255 255 255
38.28837585449219 -12.652066230773926 -0.3961942493915558 255 255 255
19.527175903320312 -6.182863712310791 -1.634842038154602 255 255 255
4.592271327972412 1.4201064109802246 -1.062546730041504 255 255 255
27.490001678466797 -4.4486823081970215 -0.3630550801753998 255 255 255
12.253722190856934 -8.996188163757324 0.3700772523880005 255 255 255
3.8244473934173584 2.0222043991088867 -0.17301036417484283 255 255 255
8.766129493713379 0.5745042562484741 -0.5786705613136292 255 255 255
19.78266716003418 -1.664538025856018 -0.3848559260368347 255 255 255
53.338321685791016 -12.849328994750977 0.7245672345161438 255 255 255
8.639121055603027 0.39696112275123596 -0.004891160409897566 255 255 255
3.412632465362549 1.8822516202926636 -0.797568142414093 255 255 255
17.42605209350586 -6.778304576873779 -1.6850647926330566 255 255 255
15.507040977478027 2.7917096614837646 0.7443405389785767 255 255 255
9.030492782592773 2.889310836791992 -1.1812655925750732 255 255 255
13.09809684753418 -2.253716230392456 -1.342563271522522 255 255 255
10.524022102355957 -8.64223575592041 -0.014412174932658672 255 255 255
6.470251560211182 1.0749129056930542 -1.0376365184783936 255 255 255
44.133575439453125 -7.7962727546691895 0.7493798136711121 255 255 255
4.9341607093811035 1.3834664821624756 -1.155275583267212 255 255 255
9.496818542480469 2.8205726146698 -0.6411963701248169 255 255 255
21.36606216430664 -1.758354663848877 0.39696112275123596 255 255 255
8.52083969116211 -1.341695785522461 -1.6226083040237427 255 255 255
10.872961044311523 -2.0136430263519287 -1.5852036476135254 255 255 255
7.2774834632873535 -2.0104758739471436 -1.6899974346160889 255 255 255
19.53596305847168 -5.794939041137695 -1.5736936330795288 255 255 255
13.910700798034668 -1.3729193210601807 -0.07218503206968307 255 255 255
14.80876636505127 -2.1395676136016846 -1.6235454082489014 255 255 255
6.216822624206543 -1.9815669059753418 -1.7032663822174072 255 255 255
8.949333190917969 3.008328914642334 -1.1605082750320435 255 255 255
18.007322311401367 -11.799539566040039 -0.32886260747909546 255 255 255
6.734010219573975 4.053936958312988 -0.19334907829761505 255 255 255
17.50067138671875 3.1484436988830566 -0.8254479169845581 255 255 255
4.922292709350586 -3.576883316040039 -1.107826828956604 255 255 255
19.739038467407227 3.5135371685028076 -0.10692011564970016 255 255 255
16.357097625732422 5.060832500457764 -0.6098788976669312 255 255 255
8.449715614318848 0.8576899766921997 -0.052926141768693924 255 255 255
12.232515335083008 -4.601193904876709 -1.6350804567337036 255 255 255
23.321020126342773 -12.95804500579834 0.6093511581420898 255 255 255
11.192483901977539 -8.688187599182129 0.3977833390235901 255 255 255
4.5916056632995605 2.111039400100708 -0.6192220449447632 255 255 255
16.29269790649414 6.322329044342041 0.014730243943631649 255 255 255
6.22169303894043 4.279908657073975 -0.023610703647136688 255 255 255
38.47844314575195 -20.537761688232422 1.707711100578308 255 255 255
16.31104278564453 -11.222813606262207 -0.7104237079620361 255 255 255
6.971614837646484 4.444359302520752 0.43344613909721375 255 255 255
9.618843078613281 -4.047704219818115 -1.7648868560791016 255 255 255
9.418079376220703 -1.0847898721694946 -1.6612613201141357 255 255 255
13.612783432006836 -6.861104965209961 -1.7477962970733643 255 255 255
6.508668422698975 1.1991633176803589 -1.6572914123535156 255 255 255
10.353114128112793 3.1750617027282715 -0.06466012448072433 255 255 255
3.475616455078125 1.936792016029358 -0.22578281164169312 255 255 255
19.264686584472656 -12.243896484375 -0.9686254262924194 255 255 255
6.645317077636719 -2.39591383934021 -1.7240370512008667 255 255 255
51.573246002197266 -25.60699462890625 -0.6540012955665588 255 255 255
18.309396743774414 1.7297433614730835 0.40403464436531067 255 255 255
7.8146138191223145 3.5764715671539307 -0.3473939299583435 255 255 255
18.677444458007812 -8.284650802612305 -1.6504541635513306 255 255 255
3.8619918823242188 1.8315094709396362 -0.2690254747867584 255 255 255
6.324347019195557 -2.855224847793579 -1.7758630514144897 255 255 255
11.148473739624023 5.508508205413818 0.49455171823501587 255 255 255
9.613381385803223 2.7366204261779785 -0.362864226102829 255 255 255
4.520632266998291 1.4654887914657593 -0.7923426032066345 255 255 255
24.54029655456543 -13.815754890441895 -1.6798171997070312 255 255 255
8.39869499206543 0.0720548927783966 -1.587436318397522 255 255 255
13.002885818481445 6.914212703704834 -0.6424074769020081 255 255 255
8.145389556884766 -7.692565441131592 -1.000476598739624 255 255 255
38.26655578613281 -12.75954818725586 -1.3272546529769897 255 255 255
16.46280860900879 6.5156121253967285 0.15092943608760834 255 255 255
7.320929527282715 -2.293231964111328 -1.765730619430542 255 255 255
10.808367729187012 -8.973517417907715 -0.7731574773788452 255 255 255
24.039188385009766 -9.245199203491211 -1.5679922103881836 255 255 255
18.327938079833984 2.563220262527466 0.6126269698143005 255 255 255
13.126450538635254 -2.5067625045776367 -1.591392993927002 255 255 255
12.551102638244629 3.583765983581543 -0.9605276584625244 255 255 255
9.492487907409668 -8.802972793579102 0.19291138648986816 255 255 255
10.20393180847168 -3.838785171508789 -1.683339238166809 255 255 255
11.751399040222168 -4.341067790985107 -1.7311670780181885 255 255 255
13.804671287536621 -5.500269412994385 -1.6488367319107056 255 255 255
13.184211730957031 -2.2331008911132812 -0.653187096118927 255 255 255
6.568935871124268 -0.9224260449409485 -1.6591670513153076 255 255 255
7.109151840209961 4.104153156280518 -0.11617222428321838 255 255 255
7.401199817657471 0.5715256333351135 -1.6046751737594604 255 255 255
31.284624099731445 -8.970136642456055 -0.6602353453636169 255 255 255
21.261808395385742 -1.2497293949127197 0.4961841404438019 255 255 255
35.359405517578125 -8.173327445983887 -0.9509927034378052 255 255 255
6.343790054321289 -0.7393798828125 -1.604883074760437 255 255 255
20.276878356933594 -12.535506248474121 -1.303712010383606 255 255 255
20.107425689697266 -12.506416320800781 -1.5171059370040894 255 255 255
13.425399780273438 3.5537190437316895 -0.6607640385627747 255 255 255
8.084396362304688 -7.714329719543457 -1.0787540674209595 255 255 255
11.313209533691406 5.598162651062012 0.679443359375 255 255 255
