ply
format ascii 1.0
element vertex 690
property float x
property float y
property float z
property uchar red
property uchar green
property uchar blue
end_header
5.173851490020752 -2.655715227127075 -1.4297617673873901 255 255 255
5.235388278961182 -2.7395787239074707 -1.394932746887207 255 255 255
5.345581531524658 -2.7629144191741943 -1.3472492694854736 255 255 255
5.264423370361328 -2.7218873500823975 -1.3603014945983887 255 255 255
5.222348690032959 -2.783473253250122 -1.2753552198410034 255 255 255
5.290096282958984 -2.6720166206359863 -1.362703800201416 255 255 255
5.396486282348633 -2.5687248706817627 -1.4741820096969604 255 255 255
5.317251205444336 -2.610292911529541 -1.3466426134109497 255 255 255
5.478163242340088 -2.561758518218994 -1.338191032409668 255 255 255
5.553420066833496 -2.683260440826416 -1.4256868362426758 255 255 255
5.554096698760986 -2.609116315841675 -1.5132265090942383 255 255 255
5.711711406707764 -2.7262208461761475 -1.5081700086593628 255 255 255
5.807191848754883 -2.791297674179077 -1.4788557291030884 255 255 255
5.925658226013184 -2.7075436115264893 -1.4923349618911743 255 255 255
6.741887092590332 -3.064418315887451 -1.7700268030166626 255 255 255
6.840177536010742 -3.090954303741455 -1.7794394493103027 255 255 255
6.9247050285339355 -3.1097800731658936 -1.8269435167312622 255 255 255
6.817755699157715 -3.0689542293548584 -1.7301057577133179 255 255 255
6.862093448638916 -3.0916748046875 -1.6912992000579834 255 255 255
6.946167945861816 -3.0758306980133057 -1.6980931758880615 255 255 255
6.901848793029785 -3.0429418087005615 -1.7112984657287598 255 255 255
6.953921318054199 -3.060398578643799 -1.7428815364837646 255 255 255
6.866257190704346 -3.041241407394409 -1.7332277297973633 255 255 255
6.973365783691406 -2.9617221355438232 -1.702402949333191 255 255 255
6.861706733703613 -2.9345762729644775 -1.6546870470046997 255 255 255
6.906500339508057 -2.89302134513855 -1.7818855047225952 255 255 255
6.971384048461914 -2.969428062438965 -1.8290427923202515 255 255 255
6.935654163360596 -2.9227030277252197 -1.6467097997665405 255 255 255
6.962157726287842 -2.96384859085083 -1.8312822580337524 255 255 255
6.9043378829956055 -2.9038760662078857 -1.7602663040161133 255 255 255
6.840851306915283 -2.8304367065429688 -1.7024394273757935 255 255 255
6.9926862716674805 -2.830775022506714 -1.6862090826034546 255 255 255
6.922253608703613 -2.7881247997283936 -1.7439491748809814 255 255 255
6.938146591186523 -2.797105312347412 -1.7520562410354614 255 255 255
7.050184726715088 -2.7239484786987305 -1.7018444538116455 255 255 255
6.967224597930908 -2.7174885272979736 -1.7142366170883179 255 255 255
6.903975486755371 -2.700540781021118 -1.766052007675171 255 255 255
6.926706314086914 -2.7224109172821045 -1.733082890510559 255 255 255
6.982081413269043 -2.586043357849121 -1.7567365169525146 255 255 255
6.935021877288818 -2.6172914505004883 -1.7980265617370605 255 255 255
6.989326000213623 -2.5552608966827393 -1.72894287109375 255 255 255
6.995302200317383 -2.571059226989746 -1.705994725227356 255 255 255
6.9988884925842285 -2.5628669261932373 -1.6741185188293457 255 255 255
6.8755011558532715 -2.5131263732910156 -1.7457449436187744 255 255 255
6.928643703460693 -2.5042660236358643 -1.6726570129394531 255 255 255
7.15239143371582 -2.472428798675537 -1.6133370399475098 255 255 255
7.058955192565918 -2.5467610359191895 -1.706648349761963 255 255 255
7.062103271484375 -2.445176601409912 -1.6651411056518555 255 255 255
6.9731245040893555 -2.429821014404297 -1.6961126327514648 255 255 255
7.046640396118164 -2.47224760055542 -1.7729862928390503 255 255 255
6.980644702911377 -2.462876796722412 -1.8112077713012695 255 255 255
7.032986640930176 -2.399620294570923 -1.7507985830307007 255 255 255
6.965090751647949 -2.348964214324951 -1.8318859338760376 255 255 255
7.028149127960205 -2.3554892539978027 -1.6599293947219849 255 255 255
7.062497615814209 -2.278578281402588 -1.6751724481582642 255 255 255
7.1291704177856445 -2.386525869369507 -1.6355024576187134 255 255 255
7.101836681365967 -2.2401211261749268 -1.7780249118804932 255 255 255
7.092678070068359 -2.244922161102295 -1.7373766899108887 255 255 255
7.037332534790039 -2.210561752319336 -1.6984059810638428 255 255 255
7.0628156661987305 -2.1758623123168945 -1.702641487121582 255 255 255
7.080291271209717 -2.168123483657837 -1.709172010421753 255 255 255
7.051751136779785 -2.149869918823242 -1.7570596933364868 255 255 255
7.050992012023926 -2.1790668964385986 -1.7101433277130127 255 255 255
7.060867786407471 -2.080125093460083 -1.69065260887146 255 255 255
7.087368488311768 -2.1295626163482666 -1.8043674230575562 255 255 255
7.065816879272461 -2.0738916397094727 -1.6696317195892334 255 255 255
7.0579986572265625 -2.1646177768707275 -1.6686723232269287 255 255 255
7.108087062835693 -1.9629470109939575 -1.6909089088439941 255 255 255
7.016446113586426 -1.9466500282287598 -1.7402900457382202 255 255 255
7.029521942138672 -2.014394998550415 -1.7278496026992798 255 255 255
7.076262474060059 -1.9481589794158936 -1.6090773344039917 255 255 255
7.107846260070801 -1.8823509216308594 -1.683605670928955 255 255 255
7.158913612365723 -1.9054994583129883 -1.7345739603042603 255 255 255
7.123722076416016 -1.8840432167053223 -1.6791402101516724 255 255 255
7.140163898468018 -1.9782451391220093 -1.7695063352584839 255 255 255
7.123556613922119 -1.8243235349655151 -1.7605677843093872 255 255 255
7.114227771759033 -1.8404078483581543 -1.7882195711135864 255 255 255
7.09834623336792 -1.8388051986694336 -1.7544552087783813 255 255 255
7.070632457733154 -1.8458980321884155 -1.7600531578063965 255 255 255
7.1397552490234375 -1.7952207326889038 -1.6629881858825684 255 255 255
7.137816429138184 -1.7467868328094482 -1.6559823751449585 255 255 255
7.208177089691162 -1.7652575969696045 -1.7280148267745972 255 255 255
7.162240982055664 -1.6406124830245972 -1.6503772735595703 255 255 255
7.054066181182861 -1.6692895889282227 -1.7764418125152588 255 255 255
7.111404895782471 -1.6518683433532715 -1.6682425737380981 255 255 255
7.138095378875732 -1.7096253633499146 -1.720723271369934 255 255 255
7.108066082000732 -1.6659269332885742 -1.7164968252182007 255 255 255
7.173186779022217 -1.556372046470642 -1.7344539165496826 255 255 255
7.123624324798584 -1.5245447158813477 -1.7791885137557983 255 255 255
7.263172626495361 -1.5850850343704224 -1.6464922428131104 255 255 255
7.123814582824707 -1.5654155015945435 -1.7015997171401978 255 255 255
7.1246442794799805 -1.553873896598816 -1.7157087326049805 255 255 255
7.146811008453369 -1.4870374202728271 -1.682866096496582 255 255 255
7.1357622146606445 -1.5026860237121582 -1.7047652006149292 255 255 255
7.212229251861572 -1.3862909078598022 -1.659570574760437 255 255 255
7.172807693481445 -1.4854974746704102 -1.6523420810699463 255 255 255
7.240537166595459 -1.3297371864318848 -1.7480287551879883 255 255 255
7.1794047355651855 -1.4850202798843384 -1.6448259353637695 255 255 255
7.219842433929443 -1.4271267652511597 -1.6744366884231567 255 255 255
7.181746006011963 -1.3172110319137573 -1.756014108657837 255 255 255
7.146173477172852 -1.2918888330459595 -1.742681622505188 255 255 255
7.1521196365356445 -1.2773921489715576 -1.6379672288894653 255 255 255
7.242763519287109 -1.2290372848510742 -1.7150046825408936 255 255 255
7.082299709320068 -1.2944589853286743 -1.7472444772720337 255 255 255
7.1141886711120605 -1.2227468490600586 -1.664963722229004 255 255 255
7.2801194190979 -1.2535680532455444 -1.6768072843551636 255 255 255
7.2044525146484375 -1.1948647499084473 -1.6247974634170532 255 255 255
7.1915669441223145 -1.2159713506698608 -1.6830782890319824 255 255 255
7.248319625854492 -1.1242144107818604 -1.672269582748413 255 255 255
7.161896705627441 -1.068687081336975 -1.682159662246704 255 255 255
7.1566081047058105 -1.0772192478179932 -1.726121425628662 255 255 255
7.162132263183594 -1.1897536516189575 -1.670670986175537 255 255 255
7.167059421539307 -1.0819640159606934 -1.6953169107437134 255 255 255
7.27855920791626 -1.0150879621505737 -1.7092530727386475 255 255 255
7.145636558532715 -0.9686276316642761 -1.5865099430084229 255 255 255
7.213403224945068 -1.1128889322280884 -1.7182044982910156 255 255 255
7.1103386878967285 -0.956855058670044 -1.6348018646240234 255 255 255
7.152413368225098 -1.0450676679611206 -1.7434006929397583 255 255 255
7.215251922607422 -0.9690779447555542 -1.7234748601913452 255 255 255
7.2080841064453125 -0.9693158864974976 -1.7678533792495728 255 255 255
7.154356479644775 -0.8589334487915039 -1.6997359991073608 255 255 255
7.203805923461914 -0.8246458768844604 -1.758234977722168 255 255 255
7.200805187225342 -0.8044422268867493 -1.6862672567367554 255 255 255
7.191758632659912 -0.7807514667510986 -1.6782432794570923 255 255 255
7.165107250213623 -0.8655964732170105 -1.7538574934005737 255 255 255
7.2202324867248535 -0.82485032081604 -1.5830204486846924 255 255 255
7.184217929840088 -0.7684066295623779 -1.7157500982284546 255 255 255
7.095386981964111 -0.6861996650695801 -1.6604974269866943 255 255 255
7.192634105682373 -0.6202151775360107 -1.744539499282837 255 255 255
7.187906742095947 -0.6925154328346252 -1.7281458377838135 255 255 255
7.101774215698242 -0.7564588785171509 -1.6367141008377075 255 255 255
7.231119632720947 -0.6700403094291687 -1.6367157697677612 255 255 255
7.065858364105225 -0.7648598551750183 -1.6762837171554565 255 255 255
7.190181732177734 -0.5870176553726196 -1.7152036428451538 255 255 255
7.128255367279053 -0.5519307851791382 -1.6609444618225098 255 255 255
7.031124114990234 -0.5466857552528381 -1.6683398485183716 255 255 255
7.1330952644348145 -0.6487322449684143 -1.661514163017273 255 255 255
7.180423736572266 -0.5350799560546875 -1.5682693719863892 255 255 255
7.067986488342285 -0.49233099818229675 -1.622925877571106 255 255 255
7.153689384460449 -0.4592912495136261 -1.6749510765075684 255 255 255
7.1639204025268555 -0.5467004776000977 -1.5739027261734009 255 255 255
7.158618450164795 -0.38686874508857727 -1.6658519506454468 255 255 255
7.145387649536133 -0.4087322950363159 -1.6405709981918335 255 255 255
7.070446968078613 -0.3438456654548645 -1.6269816160202026 255 255 255
7.080028057098389 -0.34648895263671875 -1.6853229999542236 255 255 255
7.1951446533203125 -0.4094235897064209 -1.6065459251403809 255 255 255
7.152049541473389 -0.38552266359329224 -1.6886690855026245 255 255 255
7.143176555633545 -0.38649895787239075 -1.643125295639038 255 255 255
7.182514190673828 -0.3147018253803253 -1.7489216327667236 255 255 255
7.184204578399658 -0.289671927690506 -1.6658893823623657 255 255 255
7.123495101928711 -0.3194516599178314 -1.6862741708755493 255 255 255
7.1411519050598145 -0.2697792947292328 -1.7047457695007324 255 255 255
7.127096176147461 -0.18793533742427826 -1.5815762281417847 255 255 255
7.041893482208252 -0.20062610507011414 -1.6340785026550293 255 255 255
7.229408264160156 -0.21399211883544922 -1.6214889287948608 255 255 255
7.20843505859375 -0.20085355639457703 -1.5482844114303589 255 255 255
7.171381950378418 -0.07403483241796494 -1.6421689987182617 255 255 255
7.106540679931641 -0.11420164257287979 -1.59972083568573 255 255 255
7.041431903839111 -0.15965214371681213 -1.7199259996414185 255 255 255
7.033742427825928 -0.06810317188501358 -1.8144230842590332 255 255 255
7.08925199508667 -0.019623178988695145 -1.684662103652954 255 255 255
7.073850631713867 0.008409854955971241 -1.5558931827545166 255 255 255
7.196337699890137 0.12648360431194305 -1.7040023803710938 255 255 255
7.096462249755859 0.007852309383451939 -1.620530366897583 255 255 255
7.1116228103637695 0.10449662804603577 -1.674492359161377 255 255 255
7.112713813781738 0.09322614222764969 -1.682551622390747 255 255 255
7.1160125732421875 0.008453786373138428 -1.6201175451278687 255 255 255
7.048573970794678 0.05459696799516678 -1.6667149066925049 255 255 255
7.132423400878906 0.15284138917922974 -1.5700383186340332 255 255 255
7.175418376922607 0.10440646857023239 -1.6452009677886963 255 255 255
6.941142559051514 0.14537952840328217 -1.624319314956665 255 255 255
7.142972946166992 0.20541217923164368 -1.5962713956832886 255 255 255
6.99058723449707 0.19639042019844055 -1.6572022438049316 255 255 255
6.734963417053223 0.17527326941490173 -1.7316579818725586 255 255 255
6.841684818267822 0.23605132102966309 -1.6568477153778076 255 255 255
6.816590309143066 0.29709121584892273 -1.6022517681121826 255 255 255
6.688053607940674 0.26082727313041687 -1.6436712741851807 255 255 255
6.722177982330322 0.2402656525373459 -1.6685181856155396 255 255 255
6.778496742248535 0.3146288990974426 -1.6169923543930054 255 255 255
6.771434307098389 0.16491974890232086 -1.6045479774475098 255 255 255
6.77799129486084 0.295376718044281 -1.6814812421798706 255 255 255
6.680599689483643 0.30203449726104736 -1.6386866569519043 255 255 255
6.782037734985352 0.30285951495170593 -1.5752828121185303 255 255 255
6.758078575134277 0.403425931930542 -1.5861620903015137 255 255 255
6.654674530029297 0.37015777826309204 -1.6425434350967407 255 255 255
6.6803059577941895 0.4334041178226471 -1.5427144765853882 255 255 255
6.669349670410156 0.4342522919178009 -1.633934497833252 255 255 255
6.707789421081543 0.4351705312728882 -1.6437267065048218 255 255 255
6.745419025421143 0.4428226351737976 -1.6386464834213257 255 255 255
6.721792697906494 0.46212026476860046 -1.5992623567581177 255 255 255
6.664871692657471 0.5486816763877869 -1.6540018320083618 255 255 255
6.750614643096924 0.5011415481567383 -1.6655778884887695 255 255 255
6.700384616851807 0.5736826658248901 -1.6954485177993774 255 255 255
6.758810043334961 0.5151857733726501 -1.6885136365890503 255 255 255
6.742809295654297 0.5513355135917664 -1.6757618188858032 255 255 255
6.667238235473633 0.6107777953147888 -1.62691330909729 255 255 255
6.748532295227051 0.6414461135864258 -1.598602533340454 255 255 255
6.638306140899658 0.6398885250091553 -1.6240191459655762 255 255 255
6.813863277435303 0.633895754814148 -1.6556048393249512 255 255 255
6.646805763244629 0.6542598009109497 -1.638492465019226 255 255 255
6.640028476715088 0.7593907713890076 -1.5882806777954102 255 255 255
6.696579933166504 0.7480869293212891 -1.723223090171814 255 255 255
6.749475479125977 0.7165905833244324 -1.686989188194275 255 255 255
6.671192646026611 0.7986645102500916 -1.597147822380066 255 255 255
6.717100143432617 0.8086462616920471 -1.719402551651001 255 255 255
6.58486795425415 0.7763022780418396 -1.6754816770553589 255 255 255
6.58502197265625 0.8115615844726562 -1.5634989738464355 255 255 255
6.629748821258545 0.8346999287605286 -1.6683032512664795 255 255 255
6.619113445281982 0.8221642971038818 -1.6695079803466797 255 255 255
6.60439395904541 0.9199569821357727 -1.6122373342514038 255 255 255
6.564752578735352 0.9127584099769592 -1.6432911157608032 255 255 255
6.590052127838135 0.9276447892189026 -1.614525318145752 255 255 255
6.568026065826416 0.9433295726776123 -1.6950608491897583 255 255 255
6.6214799880981445 0.9176760315895081 -1.5560894012451172 255 255 255
6.67369270324707 0.971103847026825 -1.6888175010681152 255 255 255
6.510913848876953 0.9881696105003357 -1.5507258176803589 255 255 255
6.6613922119140625 0.9961939454078674 -1.6149481534957886 255 255 255
6.610276222229004 1.056807279586792 -1.6989797353744507 255 255 255
6.591393947601318 1.112036108970642 -1.6643120050430298 255 255 255
6.604365348815918 1.1504369974136353 -1.6214956045150757 255 255 255
6.568483352661133 1.0931495428085327 -1.5916643142700195 255 255 255
6.5465312004089355 1.0818941593170166 -1.6348642110824585 255 255 255
6.554999828338623 1.144264817237854 -1.5985171794891357 255 255 255
6.475710868835449 1.1891496181488037 -1.6250975131988525 255 255 255
6.595685958862305 1.181882381439209 -1.6172692775726318 255 255 255
6.494710922241211 1.1979175806045532 -1.5309993028640747 255 255 255
6.601816177368164 1.1755794286727905 -1.6190859079360962 255 255 255
6.573616027832031 1.2701756954193115 -1.6099830865859985 255 255 255
6.505797863006592 1.2029263973236084 -1.630149006843567 255 255 255
6.505981922149658 1.2701040506362915 -1.6333383321762085 255 255 255
6.458519458770752 1.2448546886444092 -1.6124776601791382 255 255 255
6.455495357513428 1.3634960651397705 -1.6054834127426147 255 255 255
6.463686943054199 1.3160977363586426 -1.5833241939544678 255 255 255
6.471040725708008 1.3425970077514648 -1.5847147703170776 255 255 255
6.491466999053955 1.3005661964416504 -1.5708327293395996 255 255 255
6.487259864807129 1.3383333683013916 -1.6128333806991577 255 255 255
6.463716983795166 1.4028652906417847 -1.6173367500305176 255 255 255
6.5257720947265625 1.3543095588684082 -1.5839818716049194 255 255 255
6.426202774047852 1.3261438608169556 -1.5806668996810913 255 255 255
6.481054782867432 1.404836654663086 -1.7069382667541504 255 255 255
6.534177303314209 1.4928724765777588 -1.5623319149017334 255 255 255
6.526573181152344 1.3996444940567017 -1.6388887166976929 255 255 255
6.395282745361328 1.446664810180664 -1.6703147888183594 255 255 255
6.476789474487305 1.4750468730926514 -1.7022838592529297 255 255 255
6.426938533782959 1.587705135345459 -1.5940296649932861 255 255 255
6.433077335357666 1.4895952939987183 -1.5466419458389282 255 255 255
6.503067970275879 1.5829389095306396 -1.7343025207519531 255 255 255
6.506033897399902 1.652686357498169 -1.5714168548583984 255 255 255
6.472781658172607 1.6064443588256836 -1.6731499433517456 255 255 255
6.459226131439209 1.5686341524124146 -1.5964010953903198 255 255 255
6.518337249755859 1.6066312789916992 -1.6169137954711914 255 255 255
6.427492141723633 1.6223329305648804 -1.516383171081543 255 255 255
6.358401298522949 1.7558486461639404 -1.6312085390090942 255 255 255
6.326494216918945 1.7936441898345947 -1.5280873775482178 255 255 255
6.382195949554443 1.795412540435791 -1.6747066974639893 255 255 255
6.3933587074279785 1.7252625226974487 -1.5560227632522583 255 255 255
6.377112865447998 1.7523165941238403 -1.5175420045852661 255 255 255
6.342613220214844 1.7765744924545288 -1.5900671482086182 255 255 255
6.375669479370117 1.7758125066757202 -1.588221549987793 255 255 255
6.309063911437988 1.8949908018112183 -1.6352760791778564 255 255 255
6.3385491371154785 1.7791023254394531 -1.597083330154419 255 255 255
6.398016929626465 1.7565940618515015 -1.6024998426437378 255 255 255
6.440432071685791 1.9373048543930054 -1.6057525873184204 255 255 255
6.31060791015625 2.007915496826172 -1.5567200183868408 255 255 255
6.357989311218262 1.9382896423339844 -1.6356732845306396 255 255 255
6.30707311630249 1.8610292673110962 -1.6761845350265503 255 255 255
6.3482346534729 1.9859914779663086 -1.5972052812576294 255 255 255
6.340083599090576 1.887990117073059 -1.5383387804031372 255 255 255
6.138845443725586 1.975555658340454 -1.6288517713546753 255 255 255
6.3177337646484375 2.0051610469818115 -1.57512366771698 255 255 255
6.336965084075928 2.0104780197143555 -1.5543880462646484 255 255 255
6.4410176277160645 2.052255392074585 -1.599399447441101 255 255 255
6.253375053405762 2.02500581741333 -1.6455873250961304 255 255 255
6.243390083312988 2.0868570804595947 -1.5793334245681763 255 255 255
6.228813648223877 2.116645574569702 -1.6463485956192017 255 255 255
5.177633285522461 1.6745424270629883 -1.3216476440429688 255 255 255
5.039449691772461 1.727610468864441 -1.2964495420455933 255 255 255
5.136105537414551 1.7274049520492554 -1.2258983850479126 255 255 255
4.899665355682373 1.7031886577606201 -1.283045768737793 255 255 255
4.9833831787109375 1.7830710411071777 -1.2621891498565674 255 255 255
4.845357894897461 1.7248480319976807 -1.3175698518753052 255 255 255
4.9149065017700195 1.7576799392700195 -1.2745206356048584 255 255 255
4.937840938568115 1.7162936925888062 -1.3248448371887207 255 255 255
4.8757524490356445 1.8285068273544312 -1.183954119682312 255 255 255
4.870903015136719 1.7957398891448975 -1.1885548830032349 255 255 255
4.85406494140625 1.7746784687042236 -1.199535608291626 255 255 255
4.867591381072998 1.7828634977340698 -1.2317426204681396 255 255 255
4.902447700500488 1.836464524269104 -1.208851933479309 255 255 255
4.717373847961426 1.7556304931640625 -1.2998642921447754 255 255 255
4.743025302886963 1.8481940031051636 -1.1269482374191284 255 255 255
4.713510513305664 1.8217248916625977 -1.094325065612793 255 255 255
4.6351637840271 1.8202461004257202 -1.2349680662155151 255 255 255
4.675102710723877 1.8299875259399414 -1.2250633239746094 255 255 255
4.689551830291748 1.8867363929748535 -1.1376832723617554 255 255 255
4.704637050628662 1.8928189277648926 -1.2101914882659912 255 255 255
4.682159900665283 1.922273874282837 -1.1937271356582642 255 255 255
4.544131755828857 1.9793612957000732 -1.1988674402236938 255 255 255
4.543931484222412 1.845426321029663 -1.0851659774780273 255 255 255
4.45157527923584 1.9094487428665161 -1.1341557502746582 255 255 255
4.490900993347168 1.9284706115722656 -1.132926106452942 255 255 255
4.393886089324951 1.8963960409164429 -1.0900366306304932 255 255 255
4.395931243896484 1.7521471977233887 -1.1116172075271606 255 255 255
4.416159629821777 1.9319008588790894 -1.23374605178833 255 255 255
4.3135600090026855 1.925269603729248 -1.1437276601791382 255 255 255
4.415547847747803 1.9436732530593872 -1.093806505203247 255 255 255
4.295759201049805 1.8816059827804565 -1.0896944999694824 255 255 255
4.292634963989258 1.888036847114563 -1.215697169303894 255 255 255
4.270904541015625 1.9638322591781616 -1.0951403379440308 255 255 255
4.215709209442139 1.8982458114624023 -0.9824566841125488 255 255 255
4.299324035644531 1.8396046161651611 -1.1168065071105957 255 255 255
4.2315897941589355 1.90040123462677 -1.1012301445007324 255 255 255
4.210126876831055 1.9155950546264648 -1.1723378896713257 255 255 255
4.109724998474121 1.9439671039581299 -1.0203012228012085 255 255 255
4.149087905883789 1.9138027429580688 -1.042688012123108 255 255 255
4.099842548370361 1.895522117614746 -1.0738879442214966 255 255 255
4.061264514923096 1.9403226375579834 -1.1055452823638916 255 255 255
4.121765613555908 1.962780475616455 -1.0111726522445679 255 255 255
4.023253440856934 2.0007829666137695 -1.0496853590011597 255 255 255
4.035207271575928 1.962881326675415 -1.0976966619491577 255 255 255
4.090503692626953 1.9207274913787842 -0.9693963527679443 255 255 255
4.007134914398193 1.9091225862503052 -1.026396632194519 255 255 255
3.924767017364502 1.9332268238067627 -1.057686448097229 255 255 255
4.020952224731445 2.0136618614196777 -1.0930688381195068 255 255 255
3.8487966060638428 2.1076316833496094 -1.0077816247940063 255 255 255
3.89178729057312 2.0143609046936035 -0.9923133850097656 255 255 255
3.9057424068450928 2.0622878074645996 -1.0634709596633911 255 255 255
3.865955352783203 2.027425527572632 -1.06461501121521 255 255 255
3.836029291152954 2.0403404235839844 -0.9608556032180786 255 255 255
3.71793794631958 2.1336734294891357 -1.0307143926620483 255 255 255
3.749911069869995 2.029447555541992 -1.0181492567062378 255 255 255
3.7898998260498047 2.0324971675872803 -0.9931694269180298 255 255 255
3.7694778442382812 2.011194944381714 -0.9638058543205261 255 255 255
3.76425838470459 2.0072152614593506 -0.9598826766014099 255 255 255
3.7416188716888428 1.977818489074707 -1.0175055265426636 255 255 255
3.808622360229492 2.0288658142089844 -0.9699763059616089 255 255 255
3.659877061843872 2.0801079273223877 -0.9676103591918945 255 255 255
3.649723529815674 2.0954747200012207 -0.9538552165031433 255 255 255
3.620344400405884 2.06219482421875 -0.9883580207824707 255 255 255
3.726881742477417 2.0468204021453857 -1.0164895057678223 255 255 255
3.6993401050567627 2.0349879264831543 -0.9597022533416748 255 255 255
3.507188081741333 2.095799207687378 -1.0489931106567383 255 255 255
3.639460802078247 2.0338213443756104 -0.9599588513374329 255 255 255
3.5189785957336426 2.109389305114746 -0.9004423022270203 255 255 255
5.381056785583496 -2.6313693523406982 -1.3651372194290161 255 255 255
5.521914958953857 -2.676419973373413 -1.4584494829177856 255 255 255
5.334189414978027 -2.655726909637451 -1.410902738571167 255 255 255
5.355881214141846 -2.6895828247070312 -1.377500057220459 255 255 255
5.377300262451172 -2.690366506576538 -1.4755792617797852 255 255 255
5.524746894836426 -2.651446580886841 -1.56564199924469 255 255 255
5.480978965759277 -2.6087231636047363 -1.4518358707427979 255 255 255
5.643784999847412 -2.7017323970794678 -1.487634539604187 255 255 255
5.8946452140808105 -2.813443660736084 -1.559962511062622 255 255 255
6.6406779289245605 -3.049867630004883 -1.7759085893630981 255 255 255
6.5634260177612305 -3.0819597244262695 -1.7916619777679443 255 255 255
6.571600914001465 -3.0029242038726807 -1.7188968658447266 255 255 255
6.588642120361328 -2.960026741027832 -1.813767910003662 255 255 255
6.676999092102051 -2.9914441108703613 -1.7999533414840698 255 255 255
6.5623908042907715 -3.1147303581237793 -1.7569847106933594 255 255 255
6.607865333557129 -2.9457144737243652 -1.7688273191452026 255 255 255
6.605598449707031 -2.8919308185577393 -1.805895209312439 255 255 255
6.576891899108887 -2.9233908653259277 -1.765813946723938 255 255 255
6.5533833503723145 -2.797926664352417 -1.6944212913513184 255 255 255
6.608040809631348 -2.7920684814453125 -1.8105050325393677 255 255 255
6.599546432495117 -2.7845284938812256 -1.7261073589324951 255 255 255
6.655210494995117 -2.802690267562866 -1.7137808799743652 255 255 255
6.596652507781982 -2.765503406524658 -1.7399643659591675 255 255 255
6.6379313468933105 -2.759005069732666 -1.7448270320892334 255 255 255
6.677793979644775 -2.7594940662384033 -1.7746528387069702 255 255 255
6.754858493804932 -2.702443838119507 -1.6867401599884033 255 255 255
6.641511917114258 -2.692106246948242 -1.7486834526062012 255 255 255
6.716708183288574 -2.6436595916748047 -1.6942479610443115 255 255 255
6.63631534576416 -2.6344027519226074 -1.7981452941894531 255 255 255
6.722160816192627 -2.6321234703063965 -1.7313811779022217 255 255 255
6.6211466789245605 -2.6068990230560303 -1.8328776359558105 255 255 255
6.700204372406006 -2.6624715328216553 -1.7695404291152954 255 255 255
6.712639808654785 -2.6196813583374023 -1.7096259593963623 255 255 255
6.679920673370361 -2.582394599914551 -1.694361925125122 255 255 255
6.779191970825195 -2.498363494873047 -1.7806587219238281 255 255 255
6.707112789154053 -2.5640769004821777 -1.7609730958938599 255 255 255
6.679052829742432 -2.4895989894866943 -1.7778955698013306 255 255 255
6.766147136688232 -2.3532962799072266 -1.6235226392745972 255 255 255
6.733161926269531 -2.4420676231384277 -1.7354631423950195 255 255 255
6.70386266708374 -2.4403998851776123 -1.7528914213180542 255 255 255
6.738833904266357 -2.4653573036193848 -1.7899266481399536 255 255 255
6.755064010620117 -2.4479026794433594 -1.7773100137710571 255 255 255
6.6310296058654785 -2.441450595855713 -1.6744961738586426 255 255 255
6.658270359039307 -2.2975833415985107 -1.8853121995925903 255 255 255
6.719801902770996 -2.438833713531494 -1.697561502456665 255 255 255
6.786625385284424 -2.3017494678497314 -1.7016664743423462 255 255 255
6.78258752822876 -2.2673144340515137 -1.7306891679763794 255 255 255
6.742311000823975 -2.292412757873535 -1.7888928651809692 255 255 255
6.846634387969971 -2.2639713287353516 -1.8125579357147217 255 255 255
6.710938453674316 -2.2533464431762695 -1.7163866758346558 255 255 255
6.735228538513184 -2.2324399948120117 -1.79417884349823 255 255 255
6.8172173500061035 -2.125009298324585 -1.7517755031585693 255 255 255
6.713742256164551 -2.1536595821380615 -1.732215166091919 255 255 255
6.805124759674072 -2.1167097091674805 -1.7605756521224976 255 255 255
6.72968864440918 -2.068910837173462 -1.676709771156311 255 255 255
6.892420768737793 -2.1718366146087646 -1.6716102361679077 255 255 255
6.764363765716553 -2.1119062900543213 -1.7045234441757202 255 255 255
6.766688346862793 -2.0895559787750244 -1.6948952674865723 255 255 255
6.877105236053467 -2.0307302474975586 -1.7428460121154785 255 255 255
6.846920490264893 -1.9624212980270386 -1.7502082586288452 255 255 255
6.768599987030029 -1.945010781288147 -1.6168270111083984 255 255 255
6.8004069328308105 -2.1116249561309814 -1.6263551712036133 255 255 255
6.790996074676514 -1.9665286540985107 -1.6801810264587402 255 255 255
6.69998025894165 -1.944604516029358 -1.6843489408493042 255 255 255
6.94010066986084 -1.9543119668960571 -1.751930594444275 255 255 255
6.785915374755859 -1.9931142330169678 -1.706827163696289 255 255 255
6.793787956237793 -1.8432339429855347 -1.649411916732788 255 255 255
6.860284328460693 -1.9242932796478271 -1.721761703491211 255 255 255
6.8000288009643555 -1.8054555654525757 -1.7350375652313232 255 255 255
6.845309734344482 -1.755454182624817 -1.738037347793579 255 255 255
6.789515018463135 -1.7767795324325562 -1.7782564163208008 255 255 255
6.809292793273926 -1.7440470457077026 -1.7017611265182495 255 255 255
6.824771404266357 -1.7717515230178833 -1.6351197957992554 255 255 255
6.804922103881836 -1.8017021417617798 -1.8145713806152344 255 255 255
6.851733207702637 -1.6870992183685303 -1.757620096206665 255 255 255
6.78140926361084 -1.7112467288970947 -1.6928539276123047 255 255 255
6.858603477478027 -1.654384970664978 -1.7086387872695923 255 255 255
6.8167829513549805 -1.7893378734588623 -1.7018828392028809 255 255 255
6.841363430023193 -1.624969244003296 -1.6874945163726807 255 255 255
6.800246238708496 -1.6546603441238403 -1.8164865970611572 255 255 255
6.9159417152404785 -1.6092970371246338 -1.6603437662124634 255 255 255
6.884736061096191 -1.701427936553955 -1.8015257120132446 255 255 255
6.870375633239746 -1.5651686191558838 -1.7257086038589478 255 255 255
6.846307754516602 -1.5558295249938965 -1.6217166185379028 255 255 255
6.837685585021973 -1.5565167665481567 -1.6871166229248047 255 255 255
6.8820037841796875 -1.515150785446167 -1.6937795877456665 255 255 255
6.835240840911865 -1.5355678796768188 -1.75477933883667 255 255 255
6.8890204429626465 -1.538783311843872 -1.7032221555709839 255 255 255
6.894248962402344 -1.3725988864898682 -1.7300028800964355 255 255 255
6.907454967498779 -1.433398723602295 -1.700810194015503 255 255 255
6.900835037231445 -1.3063305616378784 -1.6578582525253296 255 255 255
6.935943126678467 -1.271681308746338 -1.7715691328048706 255 255 255
6.964234352111816 -1.3808279037475586 -1.8128913640975952 255 255 255
6.815965175628662 -1.3439069986343384 -1.6691571474075317 255 255 255
6.834009170532227 -1.243823528289795 -1.731423258781433 255 255 255
6.867501258850098 -1.3949049711227417 -1.717652678489685 255 255 255
6.935226917266846 -1.2511787414550781 -1.7169779539108276 255 255 255
6.931906700134277 -1.3142025470733643 -1.7038097381591797 255 255 255
6.882054805755615 -1.177736759185791 -1.7245886325836182 255 255 255
6.891736030578613 -1.232560157775879 -1.6096919775009155 255 255 255
6.9026312828063965 -1.0950429439544678 -1.6533617973327637 255 255 255
6.8472466468811035 -1.1261240243911743 -1.756500005722046 255 255 255
6.9486565589904785 -1.1431190967559814 -1.746047019958496 255 255 255
6.848267078399658 -1.1054697036743164 -1.834618091583252 255 255 255
6.79714298248291 -1.0048714876174927 -1.7208720445632935 255 255 255
6.880408763885498 -1.0267059803009033 -1.6869312524795532 255 255 255
6.891650676727295 -1.137309193611145 -1.6656625270843506 255 255 255
6.870165824890137 -1.0118629932403564 -1.7185518741607666 255 255 255
6.826838493347168 -1.0312834978103638 -1.6132210493087769 255 255 255
6.850738525390625 -1.0177243947982788 -1.718271017074585 255 255 255
6.9588518142700195 -0.9366545081138611 -1.6807924509048462 255 255 255
6.913600921630859 -1.0168471336364746 -1.6603339910507202 255 255 255
6.8556413650512695 -1.0112308263778687 -1.6984707117080688 255 255 255
6.829455375671387 -0.8886020183563232 -1.7387895584106445 255 255 255
6.8864006996154785 -0.9296354651451111 -1.6731969118118286 255 255 255
6.923202037811279 -0.8895235657691956 -1.6759272813796997 255 255 255
6.862950325012207 -0.9480443000793457 -1.6646502017974854 255 255 255
6.897483825683594 -0.8410091996192932 -1.6573594808578491 255 255 255
6.829937934875488 -0.8293785452842712 -1.6522630453109741 255 255 255
6.939009666442871 -0.8316709995269775 -1.7616868019104004 255 255 255
6.894767761230469 -0.8212841153144836 -1.7176662683486938 255 255 255
6.862583637237549 -0.7471252083778381 -1.7596814632415771 255 255 255
6.917758464813232 -0.676273763179779 -1.6825504302978516 255 255 255
7.028124809265137 -0.7410948872566223 -1.6493523120880127 255 255 255
6.798213005065918 -0.7034347057342529 -1.5664732456207275 255 255 255
6.962019443511963 -0.6635415554046631 -1.6500210762023926 255 255 255
6.944512367248535 -0.6911369562149048 -1.6282979249954224 255 255 255
6.903114318847656 -0.6790027022361755 -1.6697763204574585 255 255 255
6.8747453689575195 -0.6035137176513672 -1.683996558189392 255 255 255
6.881563663482666 -0.6009652018547058 -1.6294302940368652 255 255 255
6.939556121826172 -0.5262193083763123 -1.6588952541351318 255 255 255
6.8004937171936035 -0.5987851023674011 -1.6784539222717285 255 255 255
6.849138259887695 -0.49578359723091125 -1.6652523279190063 255 255 255
6.98742151260376 -0.49013155698776245 -1.6632745265960693 255 255 255
6.883053302764893 -0.4049244523048401 -1.6403331756591797 255 255 255
6.832451343536377 -0.440375953912735 -1.6151134967803955 255 255 255
6.812631607055664 -0.4023822247982025 -1.77849543094635 255 255 255
6.849173545837402 -0.4222683906555176 -1.7086069583892822 255 255 255
6.858798027038574 -0.4567106366157532 -1.7183330059051514 255 255 255
6.865882873535156 -0.3324713110923767 -1.628919243812561 255 255 255
6.943003177642822 -0.4039611518383026 -1.6327884197235107 255 255 255
6.870968341827393 -0.2884581387042999 -1.6875168085098267 255 255 255
6.863007068634033 -0.29671528935432434 -1.604933738708496 255 255 255
6.926452159881592 -0.3159123957157135 -1.6825826168060303 255 255 255
6.92053747177124 -0.3033978343009949 -1.6021535396575928 255 255 255
6.841908931732178 -0.27061524987220764 -1.6537537574768066 255 255 255
6.836035251617432 -0.2974531650543213 -1.6421416997909546 255 255 255
6.820965766906738 -0.27425241470336914 -1.6105657815933228 255 255 255
6.864915370941162 -0.26049402356147766 -1.6562918424606323 255 255 255
6.914726734161377 -0.061658717691898346 -1.7095838785171509 255 255 255
6.82731819152832 -0.17839688062667847 -1.6187747716903687 255 255 255
6.909686088562012 -0.20055586099624634 -1.5769821405410767 255 255 255
6.828903675079346 -0.0015373026253655553 -1.6332932710647583 255 255 255
6.841798782348633 0.017405826598405838 -1.6591488122940063 255 255 255
6.822152137756348 -0.10865651816129684 -1.680233359336853 255 255 255
6.810348987579346 0.00787726603448391 -1.5789722204208374 255 255 255
6.828685283660889 -0.0755227580666542 -1.6775810718536377 255 255 255
6.796245098114014 -0.0029066361021250486 -1.6740269660949707 255 255 255
6.773519515991211 -0.006064991466701031 -1.6246503591537476 255 255 255
6.89364767074585 0.07833126932382584 -1.647340178489685 255 255 255
6.7859649658203125 0.015713529661297798 -1.6951526403427124 255 255 255
6.845619201660156 0.08287353813648224 -1.6763298511505127 255 255 255
6.694665431976318 0.05908554792404175 -1.6417442560195923 255 255 255
6.743515491485596 0.10584328323602676 -1.6683638095855713 255 255 255
6.802192211151123 0.157724529504776 -1.6808382272720337 255 255 255
6.7970123291015625 0.0303946565836668 -1.6131970882415771 255 255 255
6.800612926483154 0.19209755957126617 -1.6271318197250366 255 255 255
6.68344259262085 0.15250295400619507 -1.5926322937011719 255 255 255
6.604676246643066 0.163344606757164 -1.6793136596679688 255 255 255
6.481350421905518 0.16395379602909088 -1.677682876586914 255 255 255
6.555586814880371 0.23197130858898163 -1.7226876020431519 255 255 255
6.5092387199401855 0.32343995571136475 -1.6559120416641235 255 255 255
6.574829578399658 0.2604125142097473 -1.7437385320663452 255 255 255
6.524567127227783 0.2845659554004669 -1.6751189231872559 255 255 255
6.615043640136719 0.32004642486572266 -1.6456263065338135 255 255 255
6.606631755828857 0.3368457555770874 -1.722316026687622 255 255 255
6.499024391174316 0.3216278851032257 -1.6641775369644165 255 255 255
6.523340225219727 0.3226431608200073 -1.6407560110092163 255 255 255
6.54934024810791 0.39295530319213867 -1.6463509798049927 255 255 255
6.595081329345703 0.41978394985198975 -1.6624736785888672 255 255 255
6.512636661529541 0.5036150813102722 -1.6319347620010376 255 255 255
6.549600601196289 0.43991485238075256 -1.64149808883667 255 255 255
6.455756187438965 0.48468253016471863 -1.6437851190567017 255 255 255
6.525478363037109 0.4994167685508728 -1.62129545211792 255 255 255
6.632858753204346 0.4847038686275482 -1.6854078769683838 255 255 255
6.459975242614746 0.677079975605011 -1.7368035316467285 255 255 255
6.437079906463623 0.49191901087760925 -1.6802393198013306 255 255 255
6.509273052215576 0.5786567330360413 -1.5861784219741821 255 255 255
6.506673336029053 0.6197220683097839 -1.6682206392288208 255 255 255
6.400585174560547 0.592708945274353 -1.7161117792129517 255 255 255
6.5936150550842285 0.7009604573249817 -1.5576144456863403 255 255 255
6.592550754547119 0.6180394291877747 -1.647416353225708 255 255 255
6.386842250823975 0.6467644572257996 -1.66954505443573 255 255 255
6.46517276763916 0.6287216544151306 -1.6547085046768188 255 255 255
6.439713478088379 0.6190031170845032 -1.7028313875198364 255 255 255
6.434078693389893 0.6776617765426636 -1.65663480758667 255 255 255
6.389532089233398 0.8212441205978394 -1.65153169631958 255 255 255
6.471476078033447 0.7623409628868103 -1.6053472757339478 255 255 255
6.450240612030029 0.74671870470047 -1.6177221536636353 255 255 255
6.332940578460693 0.8436630368232727 -1.6395411491394043 255 255 255
6.368007183074951 0.8011455535888672 -1.636946439743042 255 255 255
6.431536674499512 0.8774405717849731 -1.651188850402832 255 255 255
6.445981979370117 0.7908661961555481 -1.5911332368850708 255 255 255
6.392355442047119 0.8763774633407593 -1.6567280292510986 255 255 255
6.371619701385498 0.7880576848983765 -1.6049532890319824 255 255 255
6.463096618652344 0.8238101601600647 -1.65993332862854 255 255 255
6.448635101318359 0.9122536778450012 -1.6849642992019653 255 255 255
6.40484619140625 0.8401843905448914 -1.6137559413909912 255 255 255
6.293846607208252 0.9583278894424438 -1.679376482963562 255 255 255
6.360835075378418 1.0318254232406616 -1.601887583732605 255 255 255
6.384378910064697 0.9873567819595337 -1.6784807443618774 255 255 255
6.388899326324463 0.9579576849937439 -1.6658021211624146 255 255 255
6.409787654876709 0.9916894435882568 -1.690150260925293 255 255 255
6.3522725105285645 0.983282744884491 -1.6791093349456787 255 255 255
6.271470546722412 0.9831541180610657 -1.5583244562149048 255 255 255
6.424155235290527 1.0893489122390747 -1.512589693069458 255 255 255
6.416927814483643 1.0867542028427124 -1.3869366645812988 255 255 255
6.44834041595459 1.1196722984313965 -1.6330353021621704 255 255 255
6.364328384399414 1.2070724964141846 -1.6076942682266235 255 255 255
6.3301591873168945 1.234948992729187 -1.6301155090332031 255 255 255
6.303005218505859 1.2364846467971802 -1.563022494316101 255 255 255
6.269647598266602 1.1798522472381592 -1.754957675933838 255 255 255
6.290798664093018 1.1959489583969116 -1.5992106199264526 255 255 255
6.278188228607178 1.1719859838485718 -1.6110728979110718 255 255 255
6.314209938049316 1.2288264036178589 -1.7168782949447632 255 255 255
6.367173194885254 1.2681206464767456 -1.4868394136428833 255 255 255
6.264242172241211 1.316340684890747 -1.651087999343872 255 255 255
6.329432964324951 1.3243772983551025 -1.557989239692688 255 255 255
6.309210300445557 1.3006038665771484 -1.6318410634994507 255 255 255
6.273690223693848 1.2965877056121826 -1.7287808656692505 255 255 255
6.268467903137207 1.4051690101623535 -1.6407079696655273 255 255 255
6.257235527038574 1.3873196840286255 -1.6438555717468262 255 255 255
6.2374653816223145 1.4281717538833618 -1.6275404691696167 255 255 255
6.3999457359313965 1.2870123386383057 -1.6092246770858765 255 255 255
6.284428596496582 1.4117439985275269 -1.66376793384552 255 255 255
6.230997085571289 1.4792734384536743 -1.6360557079315186 255 255 255
6.309755802154541 1.4953802824020386 -1.5636217594146729 255 255 255
6.219456672668457 1.48045814037323 -1.6256089210510254 255 255 255
6.299432754516602 1.555918574333191 -1.6211086511611938 255 255 255
6.250197887420654 1.5158934593200684 -1.6362011432647705 255 255 255
6.2100396156311035 1.4414435625076294 -1.5935307741165161 255 255 255
6.30067777633667 1.578199863433838 -1.6085728406906128 255 255 255
6.257059097290039 1.555424451828003 -1.5281306505203247 255 255 255
6.282844066619873 1.5460108518600464 -1.6352112293243408 255 255 255
6.283128261566162 1.660775899887085 -1.4658730030059814 255 255 255
6.145369052886963 1.5459084510803223 -1.645132064819336 255 255 255
6.195693016052246 1.673933982849121 -1.613410472869873 255 255 255
6.201723575592041 1.7108083963394165 -1.5354849100112915 255 255 255
6.228206157684326 1.7328816652297974 -1.6144050359725952 255 255 255
6.258245468139648 1.6626532077789307 -1.604924201965332 255 255 255
6.224074363708496 1.6988482475280762 -1.5965110063552856 255 255 255
6.114657402038574 1.741283893585205 -1.601030707359314 255 255 255
6.19809627532959 1.7600244283676147 -1.651024341583252 255 255 255
6.122896671295166 1.7162925004959106 -1.671251654624939 255 255 255
6.180074214935303 1.784913182258606 -1.6868923902511597 255 255 255
6.107607364654541 1.8504406213760376 -1.6274285316467285 255 255 255
6.171970367431641 1.8736073970794678 -1.5411436557769775 255 255 255
6.2079854011535645 1.8060539960861206 -1.7347952127456665 255 255 255
6.140381336212158 1.802995204925537 -1.5811175107955933 255 255 255
6.172300815582275 1.8365341424942017 -1.6490918397903442 255 255 255
6.101574420928955 1.8480144739151 -1.5340620279312134 255 255 255
6.136782646179199 1.93695068359375 -1.586464524269104 255 255 255
6.025971412658691 1.9243313074111938 -1.545301079750061 255 255 255
6.087356090545654 1.9609349966049194 -1.6810551881790161 255 255 255
6.122042179107666 1.915723204612732 -1.6444107294082642 255 255 255
6.157008647918701 2.003023862838745 -1.5611425638198853 255 255 255
6.084249973297119 1.9095395803451538 -1.669830322265625 255 255 255
6.156014919281006 2.056239366531372 -1.6767528057098389 255 255 255
6.102346420288086 2.0830326080322266 -1.6112583875656128 255 255 255
6.10745906829834 2.0204365253448486 -1.6406217813491821 255 255 255
5.254230976104736 1.7335903644561768 -1.3092995882034302 255 255 255
5.1519775390625 1.785557746887207 -1.3651541471481323 255 255 255
4.996832370758057 1.7103148698806763 -1.2363860607147217 255 255 255
4.950852870941162 1.6921367645263672 -1.2845442295074463 255 255 255
4.966239929199219 1.6692031621932983 -1.2948906421661377 255 255 255
4.955322742462158 1.802915334701538 -1.2578692436218262 255 255 255
4.902113437652588 1.7803744077682495 -1.3613758087158203 255 255 255
4.9608473777771 1.8176264762878418 -1.2896629571914673 255 255 255
4.964978218078613 1.7629095315933228 -1.3019561767578125 255 255 255
4.788435935974121 1.8258416652679443 -1.2738490104675293 255 255 255
4.844685077667236 1.8411846160888672 -1.3111541271209717 255 255 255
4.839139461517334 1.7841181755065918 -1.3074544668197632 255 255 255
4.837584495544434 1.9511107206344604 -1.1857208013534546 255 255 255
4.818652629852295 1.8882235288619995 -1.1856794357299805 255 255 255
4.906196117401123 1.8845055103302002 -1.223468542098999 255 255 255
4.811906814575195 1.9081991910934448 -1.1701158285140991 255 255 255
4.719756126403809 1.8997079133987427 -1.1459202766418457 255 255 255
4.912600994110107 1.9855953454971313 -1.3272063732147217 255 255 255
4.770483016967773 1.9702119827270508 -1.2821271419525146 255 255 255
4.657407283782959 1.8117934465408325 -1.2516498565673828 255 255 255
4.608116149902344 1.9505189657211304 -1.2202175855636597 255 255 255
4.561079502105713 1.8681176900863647 -1.2550523281097412 255 255 255
4.606054306030273 1.8766121864318848 -1.293840765953064 255 255 255
6.458766937255859 -2.374871015548706 -1.6135187149047852 255 255 255
6.4565205574035645 -2.330866813659668 -1.7058883905410767 255 255 255
6.435312271118164 -2.3651320934295654 -1.7211990356445312 255 255 255
6.465123653411865 -2.2724268436431885 -1.7475813627243042 255 255 255
6.434154033660889 -2.2987594604492188 -1.7610148191452026 255 255 255
6.474689960479736 -2.2392776012420654 -1.7334131002426147 255 255 255
6.460288047790527 -2.235637664794922 -1.6328791379928589 255 255 255
6.502333641052246 -2.1754231452941895 -1.7564692497253418 255 255 255
6.447068691253662 -2.0882813930511475 -1.7036323547363281 255 255 255
6.482440948486328 -2.1090149879455566 -1.7278485298156738 255 255 255
6.483130931854248 -2.2538764476776123 -1.7972462177276611 255 255 255
6.491364479064941 -2.1430232524871826 -1.6801303625106812 255 255 255
6.473466396331787 -2.153860092163086 -1.7254918813705444 255 255 255
6.482208728790283 -2.1433258056640625 -1.6912744045257568 255 255 255
6.520017147064209 -2.1010360717773438 -1.7530784606933594 255 255 255
6.536300182342529 -2.055483102798462 -1.712744951248169 255 255 255
6.492714881896973 -1.9659805297851562 -1.7806520462036133 255 255 255
6.525356769561768 -1.9628244638442993 -1.8700127601623535 255 255 255
6.585082530975342 -2.0707271099090576 -1.772659420967102 255 255 255
6.576059818267822 -2.0253140926361084 -1.6985015869140625 255 255 255
6.488763809204102 -1.923577904701233 -1.6950836181640625 255 255 255
6.559421062469482 -1.9315094947814941 -1.6941859722137451 255 255 255
6.503030776977539 -1.9493857622146606 -1.6682120561599731 255 255 255
6.56217098236084 -1.8498693704605103 -1.737257480621338 255 255 255
6.569510459899902 -1.8956254720687866 -1.688546895980835 255 255 255
6.607758045196533 -1.8661292791366577 -1.7613548040390015 255 255 255
6.495256423950195 -1.895480751991272 -1.735955834388733 255 255 255
6.599662780761719 -1.6989973783493042 -1.741686463356018 255 255 255
6.474883556365967 -1.7897065877914429 -1.742912769317627 255 255 255
6.599173545837402 -1.8192405700683594 -1.6712126731872559 255 255 255
6.549266338348389 -1.736777901649475 -1.7783502340316772 255 255 255
6.499994277954102 -1.7373095750808716 -1.715135931968689 255 255 255
6.5545454025268555 -1.7791436910629272 -1.6988953351974487 255 255 255
6.674023151397705 -1.6902920007705688 -1.774167537689209 255 255 255
6.687125205993652 -1.7818317413330078 -1.732002854347229 255 255 255
6.597501277923584 -1.6778007745742798 -1.7466404438018799 255 255 255
6.4904985427856445 -1.604474663734436 -1.7374850511550903 255 255 255
6.675450801849365 -1.5760438442230225 -1.7283093929290771 255 255 255
6.622489929199219 -1.5500825643539429 -1.7455307245254517 255 255 255
6.604807376861572 -1.6133854389190674 -1.6813181638717651 255 255 255
6.627107620239258 -1.4446072578430176 -1.7677159309387207 255 255 255
6.73975944519043 -1.5496366024017334 -1.7248603105545044 255 255 255
6.7060699462890625 -1.6451741456985474 -1.7057201862335205 255 255 255
6.659567832946777 -1.5027581453323364 -1.7093626260757446 255 255 255
6.504024505615234 -1.4049639701843262 -1.8277723789215088 255 255 255
6.6857991218566895 -1.5418477058410645 -1.8277205228805542 255 255 255
6.647542953491211 -1.489479422569275 -1.7176133394241333 255 255 255
6.619816780090332 -1.4074538946151733 -1.6843957901000977 255 255 255
6.615279674530029 -1.4361311197280884 -1.675966501235962 255 255 255
6.547149181365967 -1.3685861825942993 -1.8120918273925781 255 255 255
6.632034778594971 -1.343227744102478 -1.707059383392334 255 255 255
6.594074726104736 -1.2712578773498535 -1.7061433792114258 255 255 255
6.5938005447387695 -1.3487260341644287 -1.6899746656417847 255 255 255
6.557452201843262 -1.3030110597610474 -1.7859145402908325 255 255 255
