ply
format ascii 1.0
element vertex 692
property float x
property float y
property float z
property uchar red
property uchar green
property uchar blue
end_header
4.445409774780273 2.045313596725464 -0.9971320033073425 255 255 255
4.434844970703125 2.144355058670044 -1.0050370693206787 255 255 255
4.358089447021484 2.0650177001953125 -1.0839468240737915 255 255 255
4.339418411254883 2.036146640777588 -1.0117884874343872 255 255 255
4.320466041564941 2.0544984340667725 -0.908267080783844 255 255 255
4.268340587615967 2.1819443702697754 -1.030319094657898 255 255 255
4.244824409484863 2.0538437366485596 -1.0307791233062744 255 255 255
4.30246114730835 2.150104284286499 -0.9799140095710754 255 255 255
4.37252950668335 2.083906650543213 -1.0870579481124878 255 255 255
4.294057846069336 2.0502395629882812 -0.917018711566925 255 255 255
4.19132137298584 2.075228214263916 -1.0969592332839966 255 255 255
4.140396595001221 2.0699965953826904 -1.0145477056503296 255 255 255
4.176173686981201 2.1166629791259766 -1.0005793571472168 255 255 255
4.12540864944458 2.1107125282287598 -1.0018656253814697 255 255 255
4.118551254272461 2.125025749206543 -1.0350254774093628 255 255 255
4.102509498596191 2.156100273132324 -0.9937231540679932 255 255 255
4.1236114501953125 2.1212046146392822 -0.9950017929077148 255 255 255
4.130831241607666 2.121495485305786 -0.9803303480148315 255 255 255
4.04868221282959 2.1700258255004883 -0.9389021992683411 255 255 255
4.092787265777588 2.1690025329589844 -1.0391600131988525 255 255 255
3.941739320755005 2.1383562088012695 -0.9649691581726074 255 255 255
3.974182605743408 2.1426215171813965 -0.9408061504364014 255 255 255
3.8913474082946777 2.0458505153656006 -0.9899455308914185 255 255 255
3.8784756660461426 2.147552967071533 -0.897933840751648 255 255 255
3.9319751262664795 2.169065475463867 -0.9032194018363953 255 255 255
3.9114251136779785 2.281053304672241 -0.8565061688423157 255 255 255
3.8675408363342285 2.088975191116333 -0.9430311322212219 255 255 255
3.8661649227142334 2.2822046279907227 -0.9343156218528748 255 255 255
3.811842918395996 2.2290053367614746 -0.8737217783927917 255 255 255
3.881646156311035 2.2121505737304688 -0.9864583015441895 255 255 255
3.761671543121338 2.2299845218658447 -0.9480101466178894 255 255 255
3.7937164306640625 2.2176713943481445 -0.908828854560852 255 255 255
3.762544631958008 2.24169921875 -0.9447529315948486 255 255 255
3.694847345352173 2.225895881652832 -0.8895585536956787 255 255 255
3.759958505630493 2.248666763305664 -0.9131813645362854 255 255 255
3.687154531478882 2.156676769256592 -0.9762267470359802 255 255 255
3.6967992782592773 2.2825827598571777 -0.9229769706726074 255 255 255
3.694791078567505 2.156691312789917 -0.9567042589187622 255 255 255
3.643059730529785 2.2592315673828125 -0.8329976797103882 255 255 255
3.664637327194214 2.1568987369537354 -0.9550564885139465 255 255 255
3.573788642883301 2.2775039672851562 -0.8634365200996399 255 255 255
3.580430507659912 2.228890895843506 -0.8382411003112793 255 255 255
3.6274163722991943 2.187037467956543 -0.7801377773284912 255 255 255
3.6123783588409424 2.186058282852173 -0.8306863307952881 255 255 255
3.605727434158325 2.170661211013794 -0.9115127921104431 255 255 255
3.5617597103118896 2.2868001461029053 -0.8291580080986023 255 255 255
3.5919692516326904 2.239595890045166 -0.9463407397270203 255 255 255
3.5698676109313965 2.2996456623077393 -0.9509292244911194 255 255 255
3.5636816024780273 2.2095766067504883 -0.8251022696495056 255 255 255
3.492645502090454 2.2670841217041016 -0.8112131357192993 255 255 255
3.4434380531311035 2.3012895584106445 -0.9360136985778809 255 255 255
3.4238741397857666 2.270291328430176 -0.829188346862793 255 255 255
3.3620152473449707 2.2348599433898926 -0.8979785442352295 255 255 255
3.5005087852478027 2.306788206100464 -0.8641695380210876 255 255 255
3.3696560859680176 2.388251781463623 -0.9340094923973083 255 255 255
3.3592936992645264 2.299530267715454 -0.9236794710159302 255 255 255
3.349221706390381 2.228884220123291 -0.8003754615783691 255 255 255
3.438011646270752 2.3289482593536377 -0.8191742897033691 255 255 255
3.3408679962158203 2.2883806228637695 -0.8315303325653076 255 255 255
3.322195291519165 2.3057119846343994 -0.9165306687355042 255 255 255
3.3490512371063232 2.330717086791992 -0.9174505472183228 255 255 255
3.37985897064209 2.3990445137023926 -0.7243138551712036 255 255 255
3.2677927017211914 2.3096656799316406 -0.8521328568458557 255 255 255
3.2230799198150635 2.3452391624450684 -0.8148163557052612 255 255 255
3.2277119159698486 2.3153038024902344 -0.7678138613700867 255 255 255
3.2615628242492676 2.4576501846313477 -0.8397032618522644 255 255 255
3.3093602657318115 2.259742021560669 -0.7311893701553345 255 255 255
3.2495017051696777 2.346151113510132 -0.8561936616897583 255 255 255
3.2168779373168945 2.3506546020507812 -0.7882869839668274 255 255 255
3.3109142780303955 2.379458427429199 -0.7818971872329712 255 255 255
3.1644649505615234 2.4535024166107178 -0.834987461566925 255 255 255
3.110396146774292 2.353433609008789 -0.8539851903915405 255 255 255
3.202500343322754 2.454516649246216 -0.7738836407661438 255 255 255
3.155205249786377 2.369041919708252 -0.8247171640396118 255 255 255
2.973984718322754 2.391305446624756 -0.7687356472015381 255 255 255
3.1950769424438477 2.3779733180999756 -0.8446227312088013 255 255 255
3.123595952987671 2.366882562637329 -0.8124462962150574 255 255 255
3.001549005508423 2.542536973953247 -0.8598411679267883 255 255 255
3.0604732036590576 2.266463279724121 -0.7288851737976074 255 255 255
3.0392985343933105 2.3191676139831543 -0.7599988579750061 255 255 255
2.9804627895355225 2.3539445400238037 -0.7263751029968262 255 255 255
3.06939697265625 2.3472890853881836 -0.8264124989509583 255 255 255
2.988302230834961 2.518134355545044 -0.7872883677482605 255 255 255
3.0287973880767822 2.459449291229248 -0.804549515247345 255 255 255
2.960834264755249 2.3612828254699707 -0.7745383381843567 255 255 255
3.024221420288086 2.379166841506958 -0.7714250683784485 255 255 255
2.9350106716156006 2.435981273651123 -0.7888098955154419 255 255 255
2.9191019535064697 2.4635255336761475 -0.7773606181144714 255 255 255
3.00642466545105 2.404486656188965 -0.8758471608161926 255 255 255
2.8804867267608643 2.4156248569488525 -0.8418807983398438 255 255 255
2.9025685787200928 2.430145740509033 -0.7535519003868103 255 255 255
2.883763313293457 2.457606554031372 -0.7977929711341858 255 255 255
2.858842372894287 2.396132469177246 -0.8334276080131531 255 255 255
2.8562097549438477 2.482036590576172 -0.8131588697433472 255 255 255
2.832857370376587 2.545562267303467 -0.7631982564926147 255 255 255
2.922508716583252 2.4646921157836914 -0.7967554926872253 255 255 255
2.8530771732330322 2.392441749572754 -0.8187404870986938 255 255 255
2.7696897983551025 2.442535877227783 -0.7361171245574951 255 255 255
5.184333801269531 -3.439068555831909 -1.322173833847046 255 255 255
5.333912372589111 -3.5080296993255615 -1.3452348709106445 255 255 255
5.251014709472656 -3.34901762008667 -1.3966501951217651 255 255 255
5.254696846008301 -3.4537718296051025 -1.35361647605896 255 255 255
5.239493370056152 -3.3279683589935303 -1.3609408140182495 255 255 255
5.295179843902588 -3.296384334564209 -1.392734169960022 255 255 255
5.300202369689941 -3.2336440086364746 -1.4227687120437622 255 255 255
5.381252765655518 -3.20290207862854 -1.3402578830718994 255 255 255
5.290547847747803 -3.2674076557159424 -1.2862985134124756 255 255 255
5.178444862365723 -3.2074995040893555 -1.3627463579177856 255 255 255
5.246362209320068 -3.1799635887145996 -1.341810941696167 255 255 255
5.2249603271484375 -3.232333183288574 -1.3774158954620361 255 255 255
5.275119304656982 -3.2302680015563965 -1.3768417835235596 255 255 255
5.382421970367432 -3.2216877937316895 -1.2893812656402588 255 255 255
5.258823871612549 -3.1689624786376953 -1.364349126815796 255 255 255
5.227269649505615 -3.1425557136535645 -1.3328397274017334 255 255 255
5.333227634429932 -3.1161251068115234 -1.372850775718689 255 255 255
5.40579080581665 -3.082674264907837 -1.2759513854980469 255 255 255
5.306030750274658 -3.1571719646453857 -1.3315088748931885 255 255 255
5.3271026611328125 -3.0878183841705322 -1.3776171207427979 255 255 255
5.324792385101318 -3.1020190715789795 -1.4323344230651855 255 255 255
5.362481117248535 -2.906217098236084 -1.3869308233261108 255 255 255
5.170094966888428 -2.966313123703003 -1.292654037475586 255 255 255
5.3168416023254395 -3.0408260822296143 -1.384084939956665 255 255 255
5.326998233795166 -3.0744597911834717 -1.393784523010254 255 255 255
5.328378200531006 -2.9833483695983887 -1.368577241897583 255 255 255
5.332247734069824 -2.8925232887268066 -1.3328087329864502 255 255 255
5.333990573883057 -2.948110818862915 -1.3728835582733154 255 255 255
5.3336615562438965 -2.899435520172119 -1.2701442241668701 255 255 255
5.3720855712890625 -2.87214994430542 -1.3377894163131714 255 255 255
5.440045356750488 -2.8302316665649414 -1.366594672203064 255 255 255
5.416464805603027 -2.793301820755005 -1.3370903730392456 255 255 255
5.44582986831665 -2.8172247409820557 -1.2655293941497803 255 255 255
5.4344940185546875 -2.809891939163208 -1.3197985887527466 255 255 255
5.531764984130859 -2.8299620151519775 -1.3490955829620361 255 255 255
5.378137111663818 -2.7628912925720215 -1.2854468822479248 255 255 255
5.4730143547058105 -2.6957881450653076 -1.315839171409607 255 255 255
5.466197490692139 -2.6770620346069336 -1.3222476243972778 255 255 255
5.363255023956299 -2.6567370891571045 -1.3848521709442139 255 255 255
5.465628623962402 -2.706860065460205 -1.2716745138168335 255 255 255
5.4738006591796875 -2.7169580459594727 -1.232369065284729 255 255 255
5.427523136138916 -2.632176637649536 -1.3811739683151245 255 255 255
5.486240386962891 -2.6010854244232178 -1.3587702512741089 255 255 255
5.469824314117432 -2.5533628463745117 -1.3241163492202759 255 255 255
5.4057488441467285 -2.635385036468506 -1.246954321861267 255 255 255
5.3781023025512695 -2.562485694885254 -1.281521201133728 255 255 255
5.358942985534668 -2.5286941528320312 -1.3831019401550293 255 255 255
5.425025939941406 -2.6378729343414307 -1.4006952047348022 255 255 255
5.410157680511475 -2.5369882583618164 -1.3230745792388916 255 255 255
5.474147319793701 -2.553880214691162 -1.3911672830581665 255 255 255
5.532695293426514 -2.5129945278167725 -1.3173373937606812 255 255 255
5.419712066650391 -2.5125792026519775 -1.4152650833129883 255 255 255
5.366975784301758 -2.493600606918335 -1.2515655755996704 255 255 255
5.497186183929443 -2.4226300716400146 -1.3167484998703003 255 255 255
5.5236077308654785 -2.425959587097168 -1.3453552722930908 255 255 255
5.663054943084717 -2.4567835330963135 -1.4350507259368896 255 255 255
5.622585296630859 -2.515615701675415 -1.3429605960845947 255 255 255
5.917130470275879 -2.581214189529419 -1.3730312585830688 255 255 255
5.83766508102417 -2.6069514751434326 -1.386217713356018 255 255 255
6.050868034362793 -2.587418794631958 -1.458666205406189 255 255 255
6.075809478759766 -2.5407423973083496 -1.4984776973724365 255 255 255
7.371260166168213 -3.0542447566986084 -1.673471450805664 255 255 255
7.334410667419434 -3.025296211242676 -1.8139735460281372 255 255 255
7.304622650146484 -3.0363476276397705 -1.8011423349380493 255 255 255
7.331217288970947 -2.987896680831909 -1.7229112386703491 255 255 255
7.292143821716309 -2.9454147815704346 -1.7359017133712769 255 255 255
7.431491374969482 -2.991518974304199 -1.7882405519485474 255 255 255
7.364503383636475 -2.9056544303894043 -1.8439611196517944 255 255 255
7.290157794952393 -2.8274643421173096 -1.777527093887329 255 255 255
7.460226535797119 -2.8510921001434326 -1.7985342741012573 255 255 255
7.365690231323242 -2.8636040687561035 -1.7758983373641968 255 255 255
7.371962070465088 -2.8109848499298096 -1.844414472579956 255 255 255
7.379286289215088 -2.8062496185302734 -1.7960424423217773 255 255 255
7.375606060028076 -2.748929500579834 -1.8212989568710327 255 255 255
7.329564094543457 -2.739393949508667 -1.7333028316497803 255 255 255
7.360635757446289 -2.6575372219085693 -1.862518072128296 255 255 255
7.437169551849365 -2.6773605346679688 -1.7272173166275024 255 255 255
7.469141483306885 -2.6289193630218506 -1.7964799404144287 255 255 255
7.464545726776123 -2.703754186630249 -1.787969708442688 255 255 255
7.4917192459106445 -2.7093780040740967 -1.743301510810852 255 255 255
7.4098968505859375 -2.6449451446533203 -1.747487187385559 255 255 255
7.358274936676025 -2.6187705993652344 -1.7732986211776733 255 255 255
7.482757091522217 -2.6231939792633057 -1.7084028720855713 255 255 255
7.355482578277588 -2.5665695667266846 -1.7841238975524902 255 255 255
7.399111270904541 -2.476191997528076 -1.7831284999847412 255 255 255
7.4795613288879395 -2.483966588973999 -1.7118704319000244 255 255 255
7.371026992797852 -2.4915361404418945 -1.8232779502868652 255 255 255
7.407154560089111 -2.421924591064453 -1.807041049003601 255 255 255
7.490195274353027 -2.5045506954193115 -1.7874586582183838 255 255 255
7.437535285949707 -2.4634017944335938 -1.7578949928283691 255 255 255
7.405405044555664 -2.4121973514556885 -1.705925464630127 255 255 255
7.554802417755127 -2.46308970451355 -1.7121771574020386 255 255 255
7.482680320739746 -2.4393327236175537 -1.736741542816162 255 255 255
7.50250768661499 -2.358755588531494 -1.8000636100769043 255 255 255
7.477055549621582 -2.238900661468506 -1.7116179466247559 255 255 255
7.434343338012695 -2.2420873641967773 -1.7019691467285156 255 255 255
7.503687858581543 -2.299705982208252 -1.7976282835006714 255 255 255
7.484748840332031 -2.176809072494507 -1.813661813735962 255 255 255
7.391867160797119 -2.2432055473327637 -1.6918599605560303 255 255 255
7.473585605621338 -2.1607701778411865 -1.7515062093734741 255 255 255
7.36558198928833 -2.1749844551086426 -1.7738937139511108 255 255 255
7.418822765350342 -2.126466751098633 -1.759658932685852 255 255 255
7.544879913330078 -2.081106185913086 -1.687842845916748 255 255 255
7.468463897705078 -2.1176865100860596 -1.775831699371338 255 255 255
7.512389659881592 -2.176831007003784 -1.7916051149368286 255 255 255
7.538846015930176 -2.025075912475586 -1.7692735195159912 255 255 255
7.512289524078369 -2.0495214462280273 -1.7581967115402222 255 255 255
7.499744892120361 -1.9854294061660767 -1.7109335660934448 255 255 255
7.521854400634766 -1.9572076797485352 -1.8003926277160645 255 255 255
7.569073677062988 -2.0083391666412354 -1.7562264204025269 255 255 255
7.445437431335449 -2.0141847133636475 -1.7185413837432861 255 255 255
7.556194305419922 -1.9045817852020264 -1.7482374906539917 255 255 255
7.502285003662109 -1.8782438039779663 -1.7005395889282227 255 255 255
7.560080051422119 -1.8518738746643066 -1.7957526445388794 255 255 255
7.563321590423584 -1.8101369142532349 -1.7634657621383667 255 255 255
7.507573127746582 -1.8715213537216187 -1.7770135402679443 255 255 255
7.486354827880859 -1.7815965414047241 -1.6686862707138062 255 255 255
7.547431945800781 -1.7292492389678955 -1.8157175779342651 255 255 255
7.578006267547607 -1.7745507955551147 -1.7681876420974731 255 255 255
7.591768264770508 -1.836011290550232 -1.6890689134597778 255 255 255
7.511317729949951 -1.657555341720581 -1.8004498481750488 255 255 255
7.539871692657471 -1.7088772058486938 -1.748822569847107 255 255 255
7.568650245666504 -1.5489604473114014 -1.7595953941345215 255 255 255
7.477622032165527 -1.6086394786834717 -1.7524043321609497 255 255 255
7.478210926055908 -1.5782347917556763 -1.6717199087142944 255 255 255
7.590237617492676 -1.6797595024108887 -1.8407810926437378 255 255 255
7.494043350219727 -1.6731147766113281 -1.7583231925964355 255 255 255
7.559108734130859 -1.529064655303955 -1.8024989366531372 255 255 255
7.465308666229248 -1.5431803464889526 -1.8165472745895386 255 255 255
7.518382549285889 -1.585937261581421 -1.7230995893478394 255 255 255
7.551913738250732 -1.496206283569336 -1.6968233585357666 255 255 255
7.505612373352051 -1.4720969200134277 -1.7418206930160522 255 255 255
7.483270168304443 -1.4873861074447632 -1.64726722240448 255 255 255
7.506882190704346 -1.3689805269241333 -1.7565429210662842 255 255 255
7.562541484832764 -1.3328760862350464 -1.662792682647705 255 255 255
7.62535285949707 -1.3308802843093872 -1.6956175565719604 255 255 255
7.642928123474121 -1.4201411008834839 -1.6924992799758911 255 255 255
7.484681606292725 -1.321076512336731 -1.6804478168487549 255 255 255
7.553519248962402 -1.2426813840866089 -1.6859335899353027 255 255 255
7.59649658203125 -1.3216816186904907 -1.710964560508728 255 255 255
7.606046676635742 -1.2663698196411133 -1.635270118713379 255 255 255
7.5048933029174805 -1.2518140077590942 -1.6541603803634644 255 255 255
7.684670925140381 -1.1716883182525635 -1.7560770511627197 255 255 255
7.540109157562256 -1.2346378564834595 -1.7705656290054321 255 255 255
7.517220973968506 -1.170152187347412 -1.7413866519927979 255 255 255
7.503534317016602 -1.121565580368042 -1.7409132719039917 255 255 255
7.597192764282227 -1.1004457473754883 -1.7015060186386108 255 255 255
7.504387855529785 -1.1156185865402222 -1.6819883584976196 255 255 255
7.594461441040039 -1.1235119104385376 -1.685012936592102 255 255 255
7.551813125610352 -1.1346451044082642 -1.5760629177093506 255 255 255
7.5315327644348145 -0.993244469165802 -1.72775399684906 255 255 255
7.623254776000977 -1.0751665830612183 -1.7421807050704956 255 255 255
7.601089000701904 -0.9697761535644531 -1.806427001953125 255 255 255
7.489062309265137 -1.045175552368164 -1.6603447198867798 255 255 255
7.660943031311035 -0.8711470365524292 -1.6450051069259644 255 255 255
7.5850443840026855 -0.8826500177383423 -1.633767008781433 255 255 255
7.592523574829102 -0.9156661033630371 -1.7328206300735474 255 255 255
7.6338114738464355 -0.940656304359436 -1.6935932636260986 255 255 255
7.585675239562988 -0.7936418056488037 -1.7087812423706055 255 255 255
7.626742839813232 -0.8180136680603027 -1.750683069229126 255 255 255
7.630434989929199 -0.8013918399810791 -1.6610578298568726 255 255 255
7.580326557159424 -0.7124351263046265 -1.7518737316131592 255 255 255
7.657290458679199 -0.8046484589576721 -1.6822178363800049 255 255 255
7.581796169281006 -0.6816928386688232 -1.7624571323394775 255 255 255
7.602335453033447 -0.7765350937843323 -1.7735692262649536 255 255 255
7.6181640625 -0.76409912109375 -1.6932235956192017 255 255 255
7.617425441741943 -0.7068366408348083 -1.6272932291030884 255 255 255
7.576138973236084 -0.6836014986038208 -1.7663277387619019 255 255 255
7.5071306228637695 -0.626912534236908 -1.6589845418930054 255 255 255
7.475463390350342 -0.514174222946167 -1.7290732860565186 255 255 255
7.589743614196777 -0.6020460724830627 -1.7156267166137695 255 255 255
7.501707553863525 -0.5273106098175049 -1.7452372312545776 255 255 255
7.573960304260254 -0.5240437984466553 -1.6748974323272705 255 255 255
7.496339797973633 -0.5070583820343018 -1.7583942413330078 255 255 255
7.598257541656494 -0.42933985590934753 -1.6862072944641113 255 255 255
7.590724468231201 -0.4634740650653839 -1.7190144062042236 255 255 255
7.4888763427734375 -0.48825976252555847 -1.7865355014801025 255 255 255
7.532972812652588 -0.49361878633499146 -1.6649835109710693 255 255 255
7.569854259490967 -0.3787107765674591 -1.7128397226333618 255 255 255
7.5461297035217285 -0.4231157898902893 -1.6815593242645264 255 255 255
7.556330680847168 -0.3521534204483032 -1.6876839399337769 255 255 255
7.694397926330566 -0.342194527387619 -1.6910099983215332 255 255 255
7.48699951171875 -0.40065112709999084 -1.7315733432769775 255 255 255
7.552698135375977 -0.2874773442745209 -1.7585480213165283 255 255 255
7.5019402503967285 -0.28708943724632263 -1.715354323387146 255 255 255
7.532994747161865 -0.2572065591812134 -1.7281932830810547 255 255 255
7.5894317626953125 -0.11371907591819763 -1.7110412120819092 255 255 255
7.444753646850586 -0.22871538996696472 -1.585000991821289 255 255 255
7.507899284362793 -0.20550502836704254 -1.7919517755508423 255 255 255
7.487761497497559 -0.1400359869003296 -1.6987746953964233 255 255 255
7.465843200683594 -0.20182941854000092 -1.6842252016067505 255 255 255
7.58182430267334 -0.13660699129104614 -1.6983498334884644 255 255 255
7.519782066345215 -0.09104219824075699 -1.6585428714752197 255 255 255
7.492576599121094 -0.13264676928520203 -1.727425217628479 255 255 255
7.489819049835205 -0.037632763385772705 -1.6200015544891357 255 255 255
7.5556206703186035 -0.11416348814964294 -1.67414128780365 255 255 255
7.528313159942627 0.0744202509522438 -1.6825628280639648 255 255 255
7.408024311065674 0.03787551447749138 -1.665915846824646 255 255 255
7.455951690673828 0.043602339923381805 -1.7195780277252197 255 255 255
7.40822696685791 0.06495345383882523 -1.6177072525024414 255 255 255
7.452141284942627 0.12972988188266754 -1.7282129526138306 255 255 255
7.425858020782471 0.07408567517995834 -1.6200069189071655 255 255 255
7.545199394226074 0.2003277689218521 -1.6244781017303467 255 255 255
7.499659538269043 0.2116083800792694 -1.7493733167648315 255 255 255
7.4457783699035645 0.15434613823890686 -1.6665244102478027 255 255 255
7.50908088684082 0.1446685791015625 -1.5822354555130005 255 255 255
7.502259731292725 0.23986758291721344 -1.7369229793548584 255 255 255
7.556949138641357 0.26875269412994385 -1.6754604578018188 255 255 255
7.5244879722595215 0.22028309106826782 -1.670434594154358 255 255 255
7.438079357147217 0.2567738890647888 -1.6553564071655273 255 255 255
7.40647029876709 0.27401354908943176 -1.6219333410263062 255 255 255
7.443942070007324 0.2666648328304291 -1.6798113584518433 255 255 255
7.420492649078369 0.2916403114795685 -1.755662441253662 255 255 255
7.460093021392822 0.4319303631782532 -1.6509861946105957 255 255 255
7.434258937835693 0.4050000309944153 -1.6647956371307373 255 255 255
7.3684210777282715 0.3234822452068329 -1.6653956174850464 255 255 255
7.38717794418335 0.3939296007156372 -1.5983307361602783 255 255 255
7.4859747886657715 0.36475667357444763 -1.643776774406433 255 255 255
7.324604034423828 0.4689028263092041 -1.5834438800811768 255 255 255
7.49783182144165 0.5309525728225708 -1.6704790592193604 255 255 255
7.000722885131836 0.44416096806526184 -1.5785773992538452 255 255 255
7.014865875244141 0.5084084272384644 -1.655202865600586 255 255 255
7.093409061431885 0.4782109260559082 -1.721727728843689 255 255 255
6.996413230895996 0.532380223274231 -1.6196497678756714 255 255 255
7.027807235717773 0.5480149984359741 -1.6056832075119019 255 255 255
7.046853065490723 0.5098506808280945 -1.572237491607666 255 255 255
6.926417827606201 0.6272934079170227 -1.6742236614227295 255 255 255
6.908490180969238 0.6266863346099854 -1.637850046157837 255 255 255
7.020891189575195 0.776343822479248 -1.6202949285507202 255 255 255
6.987376689910889 0.6867154240608215 -1.7003124952316284 255 255 255
7.030426979064941 0.668327808380127 -1.613107681274414 255 255 255
6.98238468170166 0.7363486289978027 -1.6735892295837402 255 255 255
6.955545425415039 0.7348558902740479 -1.6705349683761597 255 255 255
6.896480083465576 0.7446058988571167 -1.5523388385772705 255 255 255
7.060781478881836 0.6682263016700745 -1.6614924669265747 255 255 255
7.072412490844727 0.893058717250824 -1.6371639966964722 255 255 255
6.9704108238220215 0.8121116161346436 -1.5440430641174316 255 255 255
6.929015159606934 0.902509331703186 -1.6975449323654175 255 255 255
6.890406131744385 0.8848658800125122 -1.561517596244812 255 255 255
6.96333646774292 0.8694127798080444 -1.6073492765426636 255 255 255
6.9875078201293945 0.8672688007354736 -1.551247000694275 255 255 255
6.93511962890625 0.9118444323539734 -1.645534634590149 255 255 255
6.9907755851745605 0.9305962324142456 -1.6197103261947632 255 255 255
6.91352653503418 1.0103166103363037 -1.6000654697418213 255 255 255
6.799865245819092 0.9964637756347656 -1.6182143688201904 255 255 255
6.846365451812744 0.988426148891449 -1.5709272623062134 255 255 255
6.863810062408447 1.023833155632019 -1.682395100593567 255 255 255
6.890598773956299 1.0147160291671753 -1.6402901411056519 255 255 255
6.841846466064453 1.030997395515442 -1.7259284257888794 255 255 255
6.853170871734619 1.1157547235488892 -1.6637030839920044 255 255 255
6.902238845825195 1.0703480243682861 -1.617185354232788 255 255 255
6.871149063110352 1.1731723546981812 -1.6229772567749023 255 255 255
6.893287658691406 1.126289963722229 -1.62042236328125 255 255 255
6.826507091522217 1.2135326862335205 -1.6626338958740234 255 255 255
6.865642070770264 1.1443811655044556 -1.6500561237335205 255 255 255
6.93978214263916 1.2147818803787231 -1.6918786764144897 255 255 255
6.814439296722412 1.3117074966430664 -1.607792854309082 255 255 255
6.7849016189575195 1.2340115308761597 -1.632928729057312 255 255 255
6.822230339050293 1.2470853328704834 -1.6990125179290771 255 255 255
6.805670261383057 1.2999311685562134 -1.5915910005569458 255 255 255
6.888834476470947 1.3458163738250732 -1.627415657043457 255 255 255
6.806905746459961 1.3458666801452637 -1.523775339126587 255 255 255
6.770238399505615 1.3020907640457153 -1.5952122211456299 255 255 255
6.842426300048828 1.3187615871429443 -1.6213054656982422 255 255 255
6.86337947845459 1.3389506340026855 -1.5687377452850342 255 255 255
6.798484802246094 1.5160096883773804 -1.5023144483566284 255 255 255
6.757833957672119 1.3552229404449463 -1.650381326675415 255 255 255
6.816076755523682 1.4360231161117554 -1.6700137853622437 255 255 255
6.75686502456665 1.3803019523620605 -1.536397933959961 255 255 255
6.776525974273682 1.4699881076812744 -1.6149547100067139 255 255 255
6.83627986907959 1.3451191186904907 -1.6410906314849854 255 255 255
6.7810587882995605 1.5262110233306885 -1.6437883377075195 255 255 255
6.735934734344482 1.5997116565704346 -1.6275771856307983 255 255 255
6.699362277984619 1.5994377136230469 -1.6266847848892212 255 255 255
6.730545520782471 1.6100519895553589 -1.6046390533447266 255 255 255
6.7022271156311035 1.6589423418045044 -1.5967446565628052 255 255 255
6.678748607635498 1.5908701419830322 -1.5892105102539062 255 255 255
6.686877727508545 1.6532477140426636 -1.6753606796264648 255 255 255
6.806019306182861 1.6276142597198486 -1.580893874168396 255 255 255
6.6920390129089355 1.5968234539031982 -1.6179167032241821 255 255 255
6.719971179962158 1.7513189315795898 -1.6157666444778442 255 255 255
6.702510833740234 1.7350521087646484 -1.5590524673461914 255 255 255
6.641694068908691 1.7904328107833862 -1.5876606702804565 255 255 255
6.659055709838867 1.7635598182678223 -1.593721866607666 255 255 255
6.677639007568359 1.7860630750656128 -1.6084778308868408 255 255 255
6.756844520568848 1.680146336555481 -1.5788267850875854 255 255 255
6.687575340270996 1.7676225900650024 -1.5942267179489136 255 255 255
6.671072006225586 1.8032119274139404 -1.575177788734436 255 255 255
6.746235370635986 1.8657201528549194 -1.5778402090072632 255 255 255
6.667632102966309 1.860094428062439 -1.5732479095458984 255 255 255
6.623820781707764 1.933362364768982 -1.6065784692764282 255 255 255
6.623546123504639 1.9540690183639526 -1.6477457284927368 255 255 255
6.588881015777588 1.8394551277160645 -1.530605435371399 255 255 255
6.571902751922607 1.8311930894851685 -1.646740436553955 255 255 255
6.5633673667907715 1.9531588554382324 -1.5582258701324463 255 255 255
6.697849750518799 2.0560977458953857 -1.659191370010376 255 255 255
6.650970935821533 1.9531627893447876 -1.6473156213760376 255 255 255
6.613021373748779 2.002997875213623 -1.50843346118927 255 255 255
6.633431434631348 2.079742193222046 -1.573142170906067 255 255 255
6.60516881942749 1.9882179498672485 -1.675291895866394 255 255 255
6.506487846374512 2.0136489868164062 -1.6150504350662231 255 255 255
6.550795078277588 2.107898473739624 -1.6329708099365234 255 255 255
6.56341552734375 2.05346417427063 -1.6332566738128662 255 255 255
6.523487091064453 2.031919240951538 -1.697035551071167 255 255 255
6.56266450881958 2.16214919090271 -1.681053638458252 255 255 255
6.529941082000732 2.1947169303894043 -1.6690924167633057 255 255 255
6.590527057647705 2.114288091659546 -1.6617460250854492 255 255 255
6.53562068939209 2.151895046234131 -1.560280680656433 255 255 255
6.547657012939453 2.1804380416870117 -1.6506975889205933 255 255 255
6.533084392547607 2.214416980743408 -1.5330331325531006 255 255 255
6.489170551300049 2.305272102355957 -1.634167194366455 255 255 255
6.448347568511963 2.1771392822265625 -1.5719261169433594 255 255 255
6.555617809295654 2.388455390930176 -1.5765223503112793 255 255 255
6.41997766494751 2.296577215194702 -1.5816255807876587 255 255 255
6.4336838722229 2.180467128753662 -1.517762541770935 255 255 255
6.4009833335876465 2.3295304775238037 -1.5251306295394897 255 255 255
6.4615478515625 2.335655450820923 -1.5422794818878174 255 255 255
6.374236106872559 2.3819479942321777 -1.5372735261917114 255 255 255
6.444205284118652 2.351456642150879 -1.4853683710098267 255 255 255
6.2768874168396 2.4481682777404785 -1.6624091863632202 255 255 255
6.263068675994873 2.388641357421875 -1.5641796588897705 255 255 255
6.190839767456055 2.3444466590881348 -1.5706615447998047 255 255 255
5.031003475189209 1.9409708976745605 -1.2636851072311401 255 255 255
5.061371326446533 1.8984265327453613 -1.2112661600112915 255 255 255
4.977221965789795 1.9233430624008179 -1.295149803161621 255 255 255
4.997072696685791 1.980031967163086 -1.2226190567016602 255 255 255
4.998110771179199 1.9286738634109497 -1.2316510677337646 255 255 255
4.8086652755737305 1.8899506330490112 -1.2026649713516235 255 255 255
4.8472490310668945 1.9796901941299438 -1.1359905004501343 255 255 255
4.796263217926025 2.0261728763580322 -1.181319236755371 255 255 255
4.813270092010498 1.917991280555725 -1.1830101013183594 255 255 255
4.767415523529053 2.0489017963409424 -1.2057698965072632 255 255 255
4.615530490875244 1.963346242904663 -1.114677906036377 255 255 255
4.784422397613525 2.0061161518096924 -1.163477897644043 255 255 255
4.736141681671143 1.9771918058395386 -1.1292541027069092 255 255 255
4.693703651428223 1.928770661354065 -1.1107121706008911 255 255 255
4.699470043182373 2.021481990814209 -1.2326442003250122 255 255 255
4.574224948883057 2.023223400115967 -1.0602895021438599 255 255 255
4.681191444396973 1.9939736127853394 -1.1740494966506958 255 255 255
4.642346382141113 2.047442674636841 -1.1467399597167969 255 255 255
4.6324262619018555 2.0863757133483887 -1.1255391836166382 255 255 255
4.49895715713501 2.0620999336242676 -1.1121946573257446 255 255 255
4.534642696380615 1.9936614036560059 -1.0417829751968384 255 255 255
4.38247013092041 2.0111312866210938 -1.1616857051849365 255 255 255
4.372790813446045 2.0265536308288574 -1.0440642833709717 255 255 255
4.424676895141602 2.1130776405334473 -1.096030592918396 255 255 255
4.371644973754883 2.0166544914245605 -1.0584831237792969 255 255 255
4.372433662414551 2.0449795722961426 -1.1058309078216553 255 255 255
4.281328201293945 2.035630464553833 -1.0990352630615234 255 255 255
4.335346221923828 1.9637962579727173 -1.0779539346694946 255 255 255
4.254086017608643 2.0347094535827637 -1.1287975311279297 255 255 255
4.323753833770752 1.948879361152649 -1.0538734197616577 255 255 255
4.272650241851807 2.0824196338653564 -1.0916372537612915 255 255 255
4.264357089996338 2.0766632556915283 -1.0618044137954712 255 255 255
4.266695499420166 2.0051512718200684 -1.0602033138275146 255 255 255
4.180357456207275 2.0857532024383545 -1.0577925443649292 255 255 255
4.137065887451172 2.082427501678467 -0.9537321329116821 255 255 255
4.101640224456787 2.070294141769409 -0.9880632162094116 255 255 255
4.173463821411133 2.059049606323242 -1.0596861839294434 255 255 255
4.067747116088867 2.0714402198791504 -0.9224307537078857 255 255 255
4.06532621383667 2.0878477096557617 -1.0722215175628662 255 255 255
4.052834510803223 2.0851492881774902 -1.040150761604309 255 255 255
4.071628093719482 2.227646827697754 -1.0119686126708984 255 255 255
4.0125041007995605 2.1408283710479736 -1.0348989963531494 255 255 255
3.954165458679199 2.186736583709717 -1.0249996185302734 255 255 255
4.015028953552246 2.177988052368164 -1.0238714218139648 255 255 255
4.00872278213501 2.067415475845337 -1.0461695194244385 255 255 255
3.942803144454956 2.1448657512664795 -1.017083764076233 255 255 255
4.0080180168151855 2.17791485786438 -1.0109230279922485 255 255 255
3.9230520725250244 2.221707820892334 -1.066306471824646 255 255 255
3.81286883354187 2.170051336288452 -1.086323618888855 255 255 255
3.850594997406006 2.2306675910949707 -0.9950709342956543 255 255 255
3.8142495155334473 2.1423752307891846 -1.0397688150405884 255 255 255
3.8089346885681152 2.26147198677063 -0.9904826879501343 255 255 255
3.8216867446899414 2.1824636459350586 -0.9893949627876282 255 255 255
3.8493714332580566 2.1121504306793213 -0.9429381489753723 255 255 255
3.7740800380706787 2.135188579559326 -1.0194685459136963 255 255 255
3.731196880340576 2.2362380027770996 -1.0146976709365845 255 255 255
3.7472519874572754 2.2443764209747314 -0.9526374340057373 255 255 255
3.7087531089782715 2.184635639190674 -0.9899462461471558 255 255 255
3.722224473953247 2.2259631156921387 -0.9717269539833069 255 255 255
3.630910634994507 2.247526168823242 -0.9302664399147034 255 255 255
3.685253620147705 2.244231700897217 -0.9401887059211731 255 255 255
3.6652443408966064 2.1855783462524414 -0.874634861946106 255 255 255
3.678816318511963 2.181217908859253 -0.9481472969055176 255 255 255
3.632783889770508 2.240156650543213 -0.9988495707511902 255 255 255
3.620164155960083 2.2428817749023438 -0.8464843034744263 255 255 255
3.5270955562591553 2.1329360008239746 -0.9438134431838989 255 255 255
3.526427984237671 2.140573024749756 -0.9763974547386169 255 255 255
3.6339101791381836 2.2244112491607666 -0.8691142797470093 255 255 255
3.589367389678955 2.2806732654571533 -0.9855169653892517 255 255 255
3.4519100189208984 2.253422260284424 -0.9365213513374329 255 255 255
3.4839928150177 2.2136991024017334 -0.9579725861549377 255 255 255
3.428903579711914 2.1962175369262695 -0.9426776766777039 255 255 255
3.473156452178955 2.2885913848876953 -0.9542535543441772 255 255 255
3.4668781757354736 2.255131244659424 -0.798952043056488 255 255 255
3.411153793334961 2.1766672134399414 -0.9343501329421997 255 255 255
3.4254913330078125 2.2847366333007812 -0.887868344783783 255 255 255
3.410963535308838 2.1410343647003174 -0.9693950414657593 255 255 255
3.385357141494751 2.2918496131896973 -0.8645817637443542 255 255 255
3.324908494949341 2.2613983154296875 -0.8362880349159241 255 255 255
3.394540548324585 2.236666440963745 -0.9045696258544922 255 255 255
3.28556489944458 2.2560372352600098 -0.8947211503982544 255 255 255
3.261101007461548 2.311067819595337 -0.9737524390220642 255 255 255
3.302788257598877 2.325199604034424 -0.9360364079475403 255 255 255
3.3338394165039062 2.23679780960083 -0.974173903465271 255 255 255
3.1678693294525146 2.20743989944458 -0.8864395022392273 255 255 255
3.27730393409729 2.288050413131714 -0.9163709878921509 255 255 255
3.3087210655212402 2.315131664276123 -0.8426833152770996 255 255 255
3.197929620742798 2.3607804775238037 -0.8338587284088135 255 255 255
3.195878505706787 2.2971789836883545 -0.8381256461143494 255 255 255
3.1992645263671875 2.2808642387390137 -0.8455719947814941 255 255 255
3.077986478805542 2.3342883586883545 -0.9676091074943542 255 255 255
3.1431777477264404 2.261948347091675 -0.7603210210800171 255 255 255
3.0976829528808594 2.2855677604675293 -0.814569354057312 255 255 255
3.0351603031158447 2.335104465484619 -0.8001925945281982 255 255 255
3.0999345779418945 2.2167868614196777 -0.8755583167076111 255 255 255
3.124213933944702 2.2472972869873047 -0.80315762758255 255 255 255
3.2130072116851807 2.3369672298431396 -0.7950586080551147 255 255 255
3.12276554107666 2.350673198699951 -0.8754698038101196 255 255 255
3.071545362472534 2.2697067260742188 -0.7519849538803101 255 255 255
5.23064661026001 -3.011962890625 -1.4971917867660522 255 255 255
5.324501991271973 -2.9978790283203125 -1.4659180641174316 255 255 255
5.339243412017822 -2.9414501190185547 -1.4175126552581787 255 255 255
5.37115478515625 -3.0043108463287354 -1.3933298587799072 255 255 255
5.343743801116943 -2.8567206859588623 -1.4283968210220337 255 255 255
5.296578407287598 -2.892657518386841 -1.4000353813171387 255 255 255
5.248736381530762 -2.8129258155822754 -1.4511314630508423 255 255 255
5.404986381530762 -2.744147777557373 -1.3206861019134521 255 255 255
5.337655067443848 -2.857335090637207 -1.36263108253479 255 255 255
5.266155242919922 -2.729576587677002 -1.3027030229568481 255 255 255
5.293509006500244 -2.800555944442749 -1.434330940246582 255 255 255
5.3221659660339355 -2.651151657104492 -1.3410990238189697 255 255 255
5.245834827423096 -2.769339084625244 -1.4074605703353882 255 255 255
5.306491374969482 -2.7092158794403076 -1.4007339477539062 255 255 255
5.318009376525879 -2.7092525959014893 -1.4269194602966309 255 255 255
5.353664875030518 -2.763547420501709 -1.4429974555969238 255 255 255
5.385517120361328 -2.696650981903076 -1.4326796531677246 255 255 255
5.389566421508789 -2.6656787395477295 -1.2023566961288452 255 255 255
5.316830635070801 -2.587888717651367 -1.2438105344772339 255 255 255
5.336589813232422 -2.668583631515503 -1.4367668628692627 255 255 255
5.286477565765381 -2.6388099193573 -1.3525190353393555 255 255 255
5.337427139282227 -2.649080753326416 -1.4058971405029297 255 255 255
5.367786407470703 -2.5124833583831787 -1.410660743713379 255 255 255
5.334831237792969 -2.5440104007720947 -1.369918704032898 255 255 255
5.3113884925842285 -2.5437681674957275 -1.3336488008499146 255 255 255
5.410270690917969 -2.474266529083252 -1.383537769317627 255 255 255
5.39198637008667 -2.562476396560669 -1.4006035327911377 255 255 255
5.356594085693359 -2.4754652976989746 -1.345793604850769 255 255 255
5.429168701171875 -2.5015177726745605 -1.2167623043060303 255 255 255
5.392948627471924 -2.5143826007843018 -1.3932043313980103 255 255 255
5.511995315551758 -2.5293548107147217 -1.4748026132583618 255 255 255
5.610118389129639 -2.3915624618530273 -1.3478177785873413 255 255 255
5.731689929962158 -2.4043681621551514 -1.4065077304840088 255 255 255
5.604848384857178 -2.482229471206665 -1.4495409727096558 255 255 255
5.820834159851074 -2.4861814975738525 -1.440403699874878 255 255 255
5.829221248626709 -2.4622833728790283 -1.4569562673568726 255 255 255
6.049563407897949 -2.5363707542419434 -1.4638218879699707 255 255 255
7.034325122833252 -2.8760180473327637 -1.862328052520752 255 255 255
6.97382926940918 -2.808180570602417 -1.7850264310836792 255 255 255
6.9866509437561035 -2.82360577583313 -1.7896292209625244 255 255 255
7.035370826721191 -2.8658504486083984 -1.7667120695114136 255 255 255
7.02872896194458 -2.8186495304107666 -1.6829414367675781 255 255 255
7.081376552581787 -2.774765729904175 -1.7920408248901367 255 255 255
7.002289295196533 -2.8534657955169678 -1.71566903591156 255 255 255
7.060553550720215 -2.8092095851898193 -1.7721203565597534 255 255 255
6.992878437042236 -2.7363998889923096 -1.7303602695465088 255 255 255
7.026339054107666 -2.6833810806274414 -1.649490475654602 255 255 255
6.969114303588867 -2.584467887878418 -1.730025053024292 255 255 255
7.013935565948486 -2.5786993503570557 -1.7688275575637817 255 255 255
6.9418206214904785 -2.6720287799835205 -1.7974576950073242 255 255 255
6.981637001037598 -2.5787532329559326 -1.8237674236297607 255 255 255
7.058006763458252 -2.6120057106018066 -1.8274297714233398 255 255 255
7.019150733947754 -2.531710386276245 -1.8083504438400269 255 255 255
6.97857141494751 -2.5954625606536865 -1.7826839685440063 255 255 255
7.016605377197266 -2.5076239109039307 -1.763867974281311 255 255 255
6.9770731925964355 -2.560535430908203 -1.7076621055603027 255 255 255
7.145020484924316 -2.49588942527771 -1.7884843349456787 255 255 255
7.065476417541504 -2.5299456119537354 -1.713101863861084 255 255 255
7.076528072357178 -2.452932119369507 -1.78191339969635 255 255 255
7.019696235656738 -2.4688475131988525 -1.598197102546692 255 255 255
7.123145580291748 -2.426744222640991 -1.7600136995315552 255 255 255
7.045501708984375 -2.2468881607055664 -1.742477536201477 255 255 255
7.107760906219482 -2.213456869125366 -1.6961281299591064 255 255 255
7.122418403625488 -2.3445305824279785 -1.72384512424469 255 255 255
7.016480922698975 -2.296950340270996 -1.7162067890167236 255 255 255
7.041478157043457 -2.2375175952911377 -1.689260721206665 255 255 255
7.061461448669434 -2.271721601486206 -1.7622987031936646 255 255 255
7.1791911125183105 -2.358887195587158 -1.6473489999771118 255 255 255
7.10098123550415 -2.2185935974121094 -1.6712428331375122 255 255 255
7.127509117126465 -2.105398654937744 -1.718390703201294 255 255 255
7.167268753051758 -2.2275915145874023 -1.7715532779693604 255 255 255
7.094518184661865 -2.1714508533477783 -1.5946890115737915 255 255 255
7.083737850189209 -2.1589016914367676 -1.7805168628692627 255 255 255
7.122735023498535 -2.0359342098236084 -1.701880931854248 255 255 255
7.122048377990723 -2.033968687057495 -1.6511485576629639 255 255 255
7.058193683624268 -2.1366894245147705 -1.8440550565719604 255 255 255
7.1562275886535645 -2.130340814590454 -1.8181310892105103 255 255 255
7.041152000427246 -2.036262035369873 -1.764007568359375 255 255 255
7.199028968811035 -1.9568431377410889 -1.866228699684143 255 255 255
7.07138204574585 -1.919067144393921 -1.7317404747009277 255 255 255
7.159808158874512 -1.9422670602798462 -1.7055840492248535 255 255 255
7.120425224304199 -1.9003273248672485 -1.7302740812301636 255 255 255
7.123279571533203 -1.9396637678146362 -1.687265157699585 255 255 255
7.034873962402344 -1.9635664224624634 -1.6759922504425049 255 255 255
7.104366302490234 -1.8490619659423828 -1.7286568880081177 255 255 255
7.11979866027832 -1.791370153427124 -1.7251307964324951 255 255 255
7.245426177978516 -1.8059897422790527 -1.6914358139038086 255 255 255
7.11495304107666 -1.8258030414581299 -1.7051124572753906 255 255 255
7.223674774169922 -1.7857019901275635 -1.7268643379211426 255 255 255
7.155235767364502 -1.725812315940857 -1.8181449174880981 255 255 255
7.193922996520996 -1.7726609706878662 -1.762080430984497 255 255 255
7.115572929382324 -1.7507202625274658 -1.7456955909729004 255 255 255
7.124351501464844 -1.6475677490234375 -1.764399766921997 255 255 255
7.253442764282227 -1.703163981437683 -1.8140201568603516 255 255 255
7.161679267883301 -1.598334550857544 -1.695253849029541 255 255 255
7.194671154022217 -1.5714648962020874 -1.7446805238723755 255 255 255
7.151298999786377 -1.6191296577453613 -1.8078383207321167 255 255 255
7.10568380355835 -1.6440973281860352 -1.7563408613204956 255 255 255
7.178718566894531 -1.5721372365951538 -1.758827805519104 255 255 255
7.1863789558410645 -1.5762959718704224 -1.6482291221618652 255 255 255
7.1603922843933105 -1.5509859323501587 -1.761925220489502 255 255 255
7.125417232513428 -1.5082265138626099 -1.7098802328109741 255 255 255
7.141363620758057 -1.4898207187652588 -1.6855534315109253 255 255 255
7.164094924926758 -1.441116213798523 -1.6816507577896118 255 255 255
7.222774982452393 -1.3641961812973022 -1.6967570781707764 255 255 255
7.183314323425293 -1.3803184032440186 -1.738350749015808 255 255 255
7.12556266784668 -1.3916125297546387 -1.6893401145935059 255 255 255
7.190637111663818 -1.3947594165802002 -1.6964952945709229 255 255 255
7.165521621704102 -1.3311353921890259 -1.6861340999603271 255 255 255
7.242501258850098 -1.4178203344345093 -1.6646510362625122 255 255 255
7.16769552230835 -1.2389248609542847 -1.7208222150802612 255 255 255
7.229905605316162 -1.3340339660644531 -1.7656855583190918 255 255 255
7.232858657836914 -1.1505897045135498 -1.688127040863037 255 255 255
7.136057376861572 -1.2220408916473389 -1.6349154710769653 255 255 255
7.141350269317627 -1.2506173849105835 -1.7634270191192627 255 255 255
7.181046962738037 -1.1506991386413574 -1.754239559173584 255 255 255
7.097254276275635 -1.170445442199707 -1.6889058351516724 255 255 255
7.231262683868408 -1.2017030715942383 -1.6966114044189453 255 255 255
7.255110263824463 -1.1309229135513306 -1.659695029258728 255 255 255
7.249279975891113 -1.084650993347168 -1.651636004447937 255 255 255
7.208298206329346 -1.0764752626419067 -1.6837306022644043 255 255 255
7.125371932983398 -1.0802679061889648 -1.770740270614624 255 255 255
7.204323768615723 -1.0412940979003906 -1.685925006866455 255 255 255
7.1893463134765625 -1.0302609205245972 -1.7284437417984009 255 255 255
7.150668621063232 -1.071716070175171 -1.6713758707046509 255 255 255
7.186600685119629 -0.92760169506073 -1.6346226930618286 255 255 255
7.2069525718688965 -0.9501764178276062 -1.7189581394195557 255 255 255
7.269527912139893 -0.8905028700828552 -1.6720715761184692 255 255 255
7.178039073944092 -0.9443483948707581 -1.6995534896850586 255 255 255
7.225011348724365 -0.8727230429649353 -1.746282696723938 255 255 255
7.139703273773193 -0.896825909614563 -1.672857642173767 255 255 255
7.181894779205322 -0.8538395762443542 -1.7745610475540161 255 255 255
7.207172870635986 -0.7491413354873657 -1.6159075498580933 255 255 255
7.295409202575684 -0.7775383591651917 -1.6915651559829712 255 255 255
7.200375080108643 -0.7897503972053528 -1.6581752300262451 255 255 255
7.254405975341797 -0.7914548516273499 -1.751939058303833 255 255 255
7.172332763671875 -0.6338452100753784 -1.743077278137207 255 255 255
7.127922058105469 -0.6747260689735413 -1.7160919904708862 255 255 255
7.1347150802612305 -0.8027440905570984 -1.73785400390625 255 255 255
7.201416015625 -0.6207469701766968 -1.7641665935516357 255 255 255
7.117822170257568 -0.6250192523002625 -1.733156681060791 255 255 255
7.103341579437256 -0.7011746168136597 -1.768145203590393 255 255 255
7.239959716796875 -0.7028003334999084 -1.7245125770568848 255 255 255
7.24995756149292 -0.5878787636756897 -1.657813549041748 255 255 255
7.263032913208008 -0.5532243251800537 -1.7673650979995728 255 255 255
7.153723239898682 -0.564921498298645 -1.7067482471466064 255 255 255
7.222924709320068 -0.5664150714874268 -1.675183653831482 255 255 255
7.181398868560791 -0.5728538036346436 -1.7008628845214844 255 255 255
7.144773960113525 -0.44321778416633606 -1.7366702556610107 255 255 255
7.186807632446289 -0.4905121326446533 -1.7249208688735962 255 255 255
7.147205352783203 -0.4473797380924225 -1.6072841882705688 255 255 255
7.244381904602051 -0.477797269821167 -1.7229335308074951 255 255 255
7.1883039474487305 -0.38851165771484375 -1.6412315368652344 255 255 255
7.21301794052124 -0.3378351628780365 -1.7140835523605347 255 255 255
7.1975274085998535 -0.48559388518333435 -1.5902899503707886 255 255 255
7.165152549743652 -0.319502592086792 -1.6795719861984253 255 255 255
7.208967685699463 -0.37793558835983276 -1.6660194396972656 255 255 255
7.130885124206543 -0.3164271414279938 -1.6613333225250244 255 255 255
7.150407791137695 -0.32022830843925476 -1.5775450468063354 255 255 255
7.174221515655518 -0.3192073106765747 -1.7390872240066528 255 255 255
7.087629795074463 -0.23350921273231506 -1.6084916591644287 255 255 255
7.134711742401123 -0.2983974516391754 -1.6062637567520142 255 255 255
7.260533809661865 -0.16840553283691406 -1.5588918924331665 255 255 255
7.170500755310059 -0.18780829012393951 -1.6809360980987549 255 255 255
7.134402751922607 -0.21106010675430298 -1.6462472677230835 255 255 255
7.166518688201904 -0.14022205770015717 -1.6081249713897705 255 255 255
7.172940254211426 -0.07381664216518402 -1.7350983619689941 255 255 255
7.1359710693359375 -0.043477851897478104 -1.6782019138336182 255 255 255
7.095736980438232 -0.12556035816669464 -1.7372055053710938 255 255 255
7.144536018371582 -0.022676825523376465 -1.687341570854187 255 255 255
7.147403717041016 -0.045014869421720505 -1.6648133993148804 255 255 255
7.067914962768555 0.02161439321935177 -1.6293013095855713 255 255 255
7.1580095291137695 -0.03796692192554474 -1.7113292217254639 255 255 255
