ply
format ascii 1.0
element vertex 691
property float x
property float y
property float z
property uchar red
property uchar green
property uchar blue
end_header
11.08409595489502 -7.660980224609375 -0.30380237102508545 255 255 255
6.247620105743408 0.03957713022828102 -1.675747036933899 255 255 255
8.258846282958984 0.45336925983428955 -1.1856400966644287 255 255 255
6.694525241851807 4.430604457855225 0.41790854930877686 255 255 255
7.191906929016113 1.3052140474319458 -1.606101632118225 255 255 255
15.498382568359375 -6.561194896697998 -1.6882143020629883 255 255 255
19.560787200927734 -7.420883655548096 -0.9243754148483276 255 255 255
15.55947208404541 3.0019021034240723 0.271648645401001 255 255 255
3.709434747695923 2.0481162071228027 -0.852014422416687 255 255 255
12.651259422302246 7.63724422454834 -0.5387126207351685 255 255 255
10.591224670410156 -8.433321952819824 -0.02268983982503414 255 255 255
6.7866435050964355 4.501964092254639 -0.18152651190757751 255 255 255
11.302245140075684 -7.72526741027832 0.09608911722898483 255 255 255
29.08988380432129 -7.000527381896973 -1.4489842653274536 255 255 255
18.9804630279541 -4.6377105712890625 -1.6732035875320435 255 255 255
28.515230178833008 -4.066238880157471 -1.2021559476852417 255 255 255
8.59948444366455 -6.986353874206543 -0.8911664485931396 255 255 255
14.042119026184082 -3.885159969329834 -1.6343190670013428 255 255 255
6.835953712463379 0.019064323976635933 -1.7655211687088013 255 255 255
13.435247421264648 -5.789878845214844 -1.7410953044891357 255 255 255
75.22281646728516 -17.180177688598633 2.8130900859832764 255 255 255
20.69353675842285 -10.26663875579834 0.3775458335876465 255 255 255
3.7866275310516357 2.3290960788726807 -0.19243846833705902 255 255 255
6.808732509613037 -3.277230739593506 -1.7177443504333496 255 255 255
9.405325889587402 1.2808125019073486 -0.43959301710128784 255 255 255
4.831198215484619 1.6849595308303833 -1.2058379650115967 255 255 255
4.1558027267456055 1.6132172346115112 -0.6347658634185791 255 255 255
3.876903533935547 1.9048006534576416 -0.9651236534118652 255 255 255
54.639808654785156 -9.717309951782227 0.7088708877563477 255 255 255
6.347317218780518 5.115815162658691 0.20773564279079437 255 255 255
12.63654899597168 -0.6990682482719421 -1.6006693840026855 255 255 255
5.265415191650391 -3.182478427886963 -0.8355423808097839 255 255 255
6.5196919441223145 4.567920207977295 0.1561913937330246 255 255 255
5.627133369445801 -2.89066743850708 -1.330599308013916 255 255 255
9.720612525939941 3.8699567317962646 0.4458463788032532 255 255 255
6.452898979187012 1.6294829845428467 -1.287959337234497 255 255 255
3.275006055831909 2.160938262939453 -0.702410101890564 255 255 255
23.224191665649414 -6.6471381187438965 -1.6903455257415771 255 255 255
32.91126251220703 -5.916861057281494 -1.2258434295654297 255 255 255
7.984278678894043 -2.216775417327881 -1.693544864654541 255 255 255
7.983245849609375 -0.6016939878463745 -1.586480736732483 255 255 255
4.54316520690918 1.8488750457763672 -1.0592713356018066 255 255 255
9.356905937194824 4.163087368011475 0.43942129611968994 255 255 255
4.141485691070557 1.9274969100952148 -0.87604159116745 255 255 255
6.844691753387451 4.447935104370117 -0.0618932843208313 255 255 255
26.783447265625 -12.874873161315918 -0.7418464422225952 255 255 255
14.030924797058105 6.444805145263672 -0.7243661284446716 255 255 255
17.51968002319336 2.2314093112945557 -0.2066633552312851 255 255 255
19.14007568359375 5.135234832763672 0.7600991725921631 255 255 255
14.032716751098633 6.537444591522217 -0.7194330096244812 255 255 255
15.730953216552734 6.312824726104736 0.3585730493068695 255 255 255
9.266660690307617 3.346289873123169 -1.09322190284729 255 255 255
13.330312728881836 6.7385358810424805 -0.6011339426040649 255 255 255
12.841618537902832 -1.9897005558013916 -1.6112488508224487 255 255 255
17.923044204711914 -4.939262866973877 -1.6185935735702515 255 255 255
9.874695777893066 -2.1353237628936768 -1.7998461723327637 255 255 255
6.206212520599365 1.7613394260406494 -1.5191832780838013 255 255 255
10.785201072692871 3.1012985706329346 -0.251249760389328 255 255 255
6.491483211517334 4.640810489654541 -0.01445196382701397 255 255 255
9.271501541137695 0.2830457389354706 -0.32997816801071167 255 255 255
21.37330436706543 1.2728430032730103 0.56014484167099 255 255 255
13.837881088256836 -1.3766708374023438 -1.5809078216552734 255 255 255
9.632416725158691 0.12028645724058151 -1.2780215740203857 255 255 255
18.938257217407227 -4.261455535888672 -1.6236121654510498 255 255 255
10.3515043258667 3.185546875 -0.7535855174064636 255 255 255
18.67615509033203 5.405521869659424 0.04945588484406471 255 255 255
10.319234848022461 5.562068939208984 -0.6157278418540955 255 255 255
6.560859680175781 1.143708348274231 -0.8374642729759216 255 255 255
10.173242568969727 -7.3938446044921875 -0.018159180879592896 255 255 255
17.939359664916992 -9.928146362304688 -1.1959882974624634 255 255 255
6.435684680938721 1.1141424179077148 -1.0506529808044434 255 255 255
9.618915557861328 -1.507568120956421 -1.728484034538269 255 255 255
6.273654460906982 4.5425705909729 -0.04736652970314026 255 255 255
6.227853775024414 1.5057423114776611 -1.7304198741912842 255 255 255
6.288694381713867 -0.48524045944213867 -1.559399127960205 255 255 255
13.456963539123535 -2.6375863552093506 -1.5914446115493774 255 255 255
10.482171058654785 -2.877539873123169 -1.633225679397583 255 255 255
6.550767421722412 1.2733248472213745 -0.8746262192726135 255 255 255
6.487137794494629 1.8449723720550537 -0.9755768775939941 255 255 255
4.015376567840576 1.9668104648590088 -0.879565417766571 255 255 255
6.274890899658203 5.00933313369751 0.3589598834514618 255 255 255
9.125486373901367 -0.17389307916164398 -1.6395114660263062 255 255 255
16.20766830444336 -5.547883987426758 -1.6827775239944458 255 255 255
7.006983757019043 1.922331690788269 -1.6398026943206787 255 255 255
19.302114486694336 -7.102748394012451 -1.6427079439163208 255 255 255
6.869247913360596 4.470166206359863 0.24174517393112183 255 255 255
13.125449180603027 -0.7165518403053284 -0.5659570693969727 255 255 255
19.16517448425293 -7.8741455078125 -1.4948245286941528 255 255 255
21.017810821533203 -0.13084536790847778 0.6286627054214478 255 255 255
10.845647811889648 -8.411239624023438 0.2462492436170578 255 255 255
18.03142547607422 -7.880859851837158 -1.7795095443725586 255 255 255
8.951191902160645 0.38954269886016846 -1.3326071500778198 255 255 255
14.515035629272461 -8.513301849365234 0.26096293330192566 255 255 255
5.171704292297363 1.6313142776489258 -1.0640754699707031 255 255 255
9.343513488769531 0.5377234220504761 -1.543784499168396 255 255 255
12.291243553161621 -7.2994208335876465 0.6103878617286682 255 255 255
22.056320190429688 -10.655258178710938 -1.7619589567184448 255 255 255
11.963794708251953 -3.8587121963500977 -1.6458138227462769 255 255 255
5.1032280921936035 -3.468458890914917 -1.2624431848526 255 255 255
45.67681884765625 -12.317447662353516 -1.2623615264892578 255 255 255
17.96405029296875 2.513087272644043 0.6290061473846436 255 255 255
3.414832592010498 2.319615364074707 -0.2126820981502533 255 255 255
16.769142150878906 1.0491273403167725 -0.2026136815547943 255 255 255
9.131799697875977 3.5319013595581055 -0.9196406602859497 255 255 255
10.287985801696777 5.527352809906006 -0.6673425436019897 255 255 255
16.542936325073242 -1.9083832502365112 -1.5329678058624268 255 255 255
10.273172378540039 -7.712234020233154 -0.48326027393341064 255 255 255
13.431397438049316 4.434536933898926 -0.07503273338079453 255 255 255
7.5431976318359375 -1.1132241487503052 -1.7645013332366943 255 255 255
43.51943588256836 -3.64681077003479 1.6637284755706787 255 255 255
15.888031005859375 7.556295394897461 0.20498579740524292 255 255 255
26.115869522094727 -3.5221927165985107 -1.2252001762390137 255 255 255
14.056953430175781 6.543487548828125 -0.5069295763969421 255 255 255
6.88612174987793 0.9072839021682739 -0.6572906970977783 255 255 255
6.540582180023193 1.2500557899475098 -0.8217793703079224 255 255 255
20.766555786132812 4.587540149688721 0.7676069736480713 255 255 255
34.451148986816406 -7.916406154632568 -1.124743938446045 255 255 255
7.9575066566467285 1.1768096685409546 -0.1212887391448021 255 255 255
7.3639984130859375 -2.188305377960205 -1.7226797342300415 255 255 255
23.25528907775879 -6.571443557739258 -1.5605483055114746 255 255 255
10.455662727355957 -1.9862840175628662 -1.644528865814209 255 255 255
12.429967880249023 -2.1571288108825684 -1.7509005069732666 255 255 255
17.637784957885742 1.4707801342010498 -0.38063329458236694 255 255 255
3.3097314834594727 2.184507131576538 -0.4514041543006897 255 255 255
39.23656463623047 -6.408441543579102 -0.5952679514884949 255 255 255
4.192714214324951 1.8712536096572876 -1.0060298442840576 255 255 255
19.276533126831055 -8.206633567810059 -0.5384265780448914 255 255 255
6.057393550872803 4.835785865783691 0.03617975860834122 255 255 255
4.913919448852539 1.6602972745895386 -1.181471347808838 255 255 255
13.06949520111084 4.591132640838623 -0.8811264038085938 255 255 255
9.3821382522583 0.0996888130903244 -1.6358064413070679 255 255 255
17.765731811523438 3.501852512359619 -0.23348890244960785 255 255 255
4.807993412017822 1.8020588159561157 -0.6856645941734314 255 255 255
8.646904945373535 -2.058955192565918 -1.823013424873352 255 255 255
10.349817276000977 -4.317103385925293 -1.753214716911316 255 255 255
11.900059700012207 -0.41238653659820557 -1.631897211074829 255 255 255
40.743873596191406 -17.21122169494629 -0.1058579608798027 255 255 255
10.643072128295898 -7.83576774597168 -0.29574093222618103 255 255 255
10.006162643432617 3.160590410232544 -0.8940773010253906 255 255 255
9.91475772857666 5.2714409828186035 0.01690043695271015 255 255 255
14.753825187683105 -1.7160608768463135 -1.0702531337738037 255 255 255
6.357022762298584 -1.6742417812347412 -1.6764981746673584 255 255 255
40.57695388793945 -12.404854774475098 -1.4298423528671265 255 255 255
5.195328712463379 -3.2654483318328857 -1.2748299837112427 255 255 255
5.29134464263916 1.755719542503357 -1.1302410364151 255 255 255
19.253557205200195 -8.044160842895508 -0.16238150000572205 255 255 255
15.015886306762695 3.4699997901916504 0.031220082193613052 255 255 255
18.840635299682617 5.340473175048828 0.20848257839679718 255 255 255
8.601036071777344 1.588888168334961 -0.5942731499671936 255 255 255
7.810382843017578 0.69771808385849 -0.9687776565551758 255 255 255
12.363250732421875 -4.967782497406006 -1.717847228050232 255 255 255
5.377206802368164 -2.907794952392578 -0.8599424362182617 255 255 255
13.24573802947998 -1.12239670753479 -1.3164682388305664 255 255 255
6.58540678024292 4.69024133682251 -0.1606493443250656 255 255 255
3.228044271469116 2.1934187412261963 -0.8506602048873901 255 255 255
6.425730228424072 -3.0374317169189453 -0.9687225818634033 255 255 255
21.278770446777344 0.5952553153038025 0.16624484956264496 255 255 255
19.687911987304688 5.171708106994629 0.17556770145893097 255 255 255
3.8251802921295166 1.9944533109664917 -0.7160858511924744 255 255 255
8.709250450134277 1.3566863536834717 -0.2965719997882843 255 255 255
9.968183517456055 -8.231643676757812 0.17333893477916718 255 255 255
3.758554220199585 2.303422689437866 -0.22019630670547485 255 255 255
21.512462615966797 -0.8853512406349182 0.9366276860237122 255 255 255
17.762645721435547 2.9069433212280273 -0.06577450782060623 255 255 255
6.647157192230225 -2.871492624282837 -1.7719511985778809 255 255 255
26.466949462890625 -5.194685459136963 -1.3235585689544678 255 255 255
8.040091514587402 -0.2983866035938263 -1.6062512397766113 255 255 255
15.70262622833252 -9.263607025146484 -1.088474154472351 255 255 255
15.032387733459473 4.27628231048584 -0.958926260471344 255 255 255
17.33249282836914 3.133134603500366 -0.3502742350101471 255 255 255
6.839956283569336 0.7977868318557739 -1.5965635776519775 255 255 255
6.495086669921875 1.2768311500549316 -1.0316733121871948 255 255 255
5.3696699142456055 -3.8533670902252197 -0.34705743193626404 255 255 255
9.642192840576172 -7.646648406982422 -0.23575381934642792 255 255 255
12.853452682495117 -2.8582077026367188 -1.6099128723144531 255 255 255
37.38246154785156 -5.6386308670043945 0.13869063556194305 255 255 255
7.376156330108643 -3.0099050998687744 -1.7789500951766968 255 255 255
6.618998050689697 5.100009918212891 -0.18958386778831482 255 255 255
23.524620056152344 -11.515542030334473 -1.5238935947418213 255 255 255
19.08749008178711 -5.77386474609375 -1.737621545791626 255 255 255
5.415470123291016 -3.0792250633239746 -0.5225489735603333 255 255 255
6.413629531860352 1.1970463991165161 -1.2551188468933105 255 255 255
6.669578552246094 4.524991035461426 -0.06595917046070099 255 255 255
27.975202560424805 -12.754186630249023 -1.6900373697280884 255 255 255
6.977438449859619 2.4024691581726074 -0.8428955078125 255 255 255
18.53924560546875 0.5074672698974609 -0.17900685966014862 255 255 255
4.862053871154785 1.7503138780593872 -0.9595078229904175 255 255 255
6.476071834564209 -1.4204233884811401 -1.7861453294754028 255 255 255
8.724250793457031 3.7057859897613525 -1.1996428966522217 255 255 255
4.924622535705566 -3.817274808883667 -1.4260196685791016 255 255 255
7.006943702697754 -2.852449655532837 -1.8029139041900635 255 255 255
8.346561431884766 3.9653255939483643 -0.8903841972351074 255 255 255
9.342921257019043 0.29255378246307373 -1.1003599166870117 255 255 255
9.375426292419434 -3.346897840499878 -1.7537086009979248 255 255 255
17.088666915893555 -5.630908489227295 -1.7161868810653687 255 255 255
6.57433557510376 1.32870614528656 -1.0461455583572388 255 255 255
40.52549362182617 -17.15987777709961 1.6833194494247437 255 255 255
7.17438268661499 -3.1225321292877197 -1.8973278999328613 255 255 255
4.622189521789551 1.7254981994628906 -0.9685091376304626 255 255 255
10.184941291809082 5.421445369720459 -0.270145446062088 255 255 255
13.179516792297363 5.874112606048584 -0.8223057985305786 255 255 255
6.9347686767578125 0.29275211691856384 -1.63145112991333 255 255 255
11.134486198425293 -3.6735267639160156 -1.7356326580047607 255 255 255
9.326269149780273 1.3086131811141968 -0.43064117431640625 255 255 255
12.083916664123535 -8.13043212890625 -0.8216496109962463 255 255 255
7.458000659942627 -1.0572646856307983 -1.667052984237671 255 255 255
12.172887802124023 4.923897743225098 -0.9149277210235596 255 255 255
8.356998443603516 -2.192701816558838 -1.7783530950546265 255 255 255
17.93332290649414 0.9198114275932312 -0.5285283327102661 255 255 255
31.685714721679688 -4.9573211669921875 -1.1576859951019287 255 255 255
11.511324882507324 -7.635314464569092 0.19319918751716614 255 255 255
14.126468658447266 6.233375549316406 -0.7167366147041321 255 255 255
5.007508277893066 -3.549022912979126 -0.9020318388938904 255 255 255
10.91063404083252 -4.235387325286865 -1.6882439851760864 255 255 255
10.546619415283203 -8.237833023071289 0.39895889163017273 255 255 255
15.589699745178223 6.419750690460205 -0.0015680002979934216 255 255 255
7.119357109069824 -1.6958515644073486 -1.653863787651062 255 255 255
4.954751014709473 1.6699734926223755 -0.9486109018325806 255 255 255
4.99082088470459 -3.3689372539520264 -1.2396998405456543 255 255 255
20.46833610534668 -6.575437068939209 -1.7009905576705933 255 255 255
12.00581169128418 -3.2250444889068604 -1.7041385173797607 255 255 255
15.686155319213867 7.022536277770996 0.10939007252454758 255 255 255
10.027524948120117 -7.543704986572266 -0.6550278663635254 255 255 255
68.9102783203125 -12.217535972595215 2.103393793106079 255 255 255
17.637155532836914 -3.0073883533477783 -1.6220288276672363 255 255 255
4.846086025238037 1.6990389823913574 -0.9929835796356201 255 255 255
3.455970525741577 2.26002836227417 -0.2389533817768097 255 255 255
5.099660396575928 -3.371554136276245 -0.9624544978141785 255 255 255
3.1996304988861084 2.621704578399658 -0.15491297841072083 255 255 255
9.654391288757324 -4.232053756713867 -1.7045789957046509 255 255 255
11.158378601074219 6.132535457611084 -0.8865303993225098 255 255 255
21.45723533630371 -0.28124088048934937 0.7981106042861938 255 255 255
7.347038269042969 -2.500072717666626 -1.6265685558319092 255 255 255
5.503922939300537 -3.718384265899658 -0.42138001322746277 255 255 255
15.576860427856445 6.429891586303711 -0.668597936630249 255 255 255
7.232568740844727 0.804632306098938 -0.5450002551078796 255 255 255
6.536295413970947 0.3427979052066803 -1.5911681652069092 255 255 255
10.522499084472656 -2.5264437198638916 -1.7496036291122437 255 255 255
7.078324794769287 1.096652865409851 -0.6368723511695862 255 255 255
12.98184585571289 -0.5985017418861389 -1.095189094543457 255 255 255
18.891883850097656 5.252336025238037 0.489812970161438 255 255 255
3.501816511154175 2.0567452907562256 -0.7066870927810669 255 255 255
15.138458251953125 3.3184924125671387 0.054746113717556 255 255 255
16.120361328125 -5.419154644012451 -1.7163991928100586 255 255 255
52.396629333496094 -14.393091201782227 -1.1400506496429443 255 255 255
12.450518608093262 -2.3478941917419434 -1.5768609046936035 255 255 255
19.17441177368164 -10.163232803344727 -0.6484752297401428 255 255 255
5.160180568695068 -3.1268882751464844 -1.303528904914856 255 255 255
4.271913051605225 1.8695071935653687 -1.0402510166168213 255 255 255
19.322341918945312 5.15554666519165 0.4659497141838074 255 255 255
22.11933135986328 1.0206801891326904 0.26485952734947205 255 255 255
6.839066982269287 -1.2767410278320312 -1.7041629552841187 255 255 255
12.713175773620605 -7.667060375213623 0.6202124953269958 255 255 255
9.419086456298828 -0.1606072038412094 -1.7263727188110352 255 255 255
14.445575714111328 -1.6171963214874268 -1.2161680459976196 255 255 255
7.039492130279541 -0.03445678949356079 -1.7701843976974487 255 255 255
8.31240463256836 0.6684785485267639 -1.5470064878463745 255 255 255
23.50806999206543 -7.325143337249756 -1.5316671133041382 255 255 255
6.452309608459473 -2.1393673419952393 -1.8018145561218262 255 255 255
5.171270847320557 -3.265197277069092 -0.807415246963501 255 255 255
13.448600769042969 8.1951904296875 -0.43715524673461914 255 255 255
6.133315563201904 4.961144924163818 0.029434416443109512 255 255 255
6.351390838623047 1.1108886003494263 -0.9586330056190491 255 255 255
22.049219131469727 1.5846328735351562 0.4607708156108856 255 255 255
17.67555809020996 2.3027520179748535 0.6371763944625854 255 255 255
13.46642017364502 4.316946983337402 -0.9004690647125244 255 255 255
5.170466899871826 1.665878176689148 -1.319978952407837 255 255 255
11.924217224121094 -3.9208905696868896 -1.6658347845077515 255 255 255
6.374650478363037 1.8036539554595947 -1.089949607849121 255 255 255
7.144054889678955 0.7932294011116028 -0.8029983043670654 255 255 255
7.970279693603516 -1.9212232828140259 -1.664915680885315 255 255 255
14.094559669494629 4.452486515045166 -0.9124895930290222 255 255 255
75.28514862060547 -15.755816459655762 1.9384114742279053 255 255 255
7.27114725112915 -3.26674747467041 -0.8460928797721863 255 255 255
13.035700798034668 4.471997261047363 -0.5208101868629456 255 255 255
4.05450963973999 1.9589202404022217 -0.41133615374565125 255 255 255
4.6254730224609375 1.7645890712738037 -1.035192608833313 255 255 255
9.369277000427246 -0.02994166873395443 -1.53835129737854 255 255 255
6.574426651000977 1.750259280204773 -0.8798660635948181 255 255 255
10.543384552001953 -8.45447063446045 -0.09935996681451797 255 255 255
4.921332359313965 -3.708991050720215 -1.3421263694763184 255 255 255
10.192469596862793 5.192030429840088 0.23081015050411224 255 255 255
16.79046630859375 -2.7287049293518066 -1.6298655271530151 255 255 255
8.878772735595703 -7.238389492034912 -0.29926568269729614 255 255 255
21.63360595703125 -6.287144660949707 -1.6460415124893188 255 255 255
18.499799728393555 0.40333840250968933 -0.4428664445877075 255 255 255
12.886834144592285 -0.5021632313728333 -0.8982783555984497 255 255 255
6.469067573547363 -2.40108060836792 -1.7097948789596558 255 255 255
6.35624361038208 4.684750556945801 0.15258726477622986 255 255 255
7.48786735534668 -0.7369751334190369 -1.6689987182617188 255 255 255
32.33807373046875 -4.111975193023682 -0.6543123722076416 255 255 255
3.5056369304656982 2.050422430038452 -0.9122325778007507 255 255 255
14.728599548339844 -5.230691432952881 -1.7703280448913574 255 255 255
8.040885925292969 -0.47910046577453613 -1.5272117853164673 255 255 255
9.912779808044434 -0.4324665367603302 -1.614928960800171 255 255 255
14.945387840270996 -9.106732368469238 -0.7083711624145508 255 255 255
14.014217376708984 -4.738393783569336 -1.7866915464401245 255 255 255
9.503288269042969 5.03920841217041 0.6401544809341431 255 255 255
8.535998344421387 -1.7198139429092407 -1.601550579071045 255 255 255
15.402413368225098 -5.902937412261963 -1.7111085653305054 255 255 255
7.281851768493652 -2.8478586673736572 -1.8513615131378174 255 255 255
7.0596184730529785 0.4785683751106262 -1.6203478574752808 255 255 255
9.904572486877441 3.444401979446411 -0.6197789907455444 255 255 255
15.242364883422852 -1.8785234689712524 -0.8879570960998535 255 255 255
7.526576042175293 -0.19212844967842102 -1.6364829540252686 255 255 255
3.8776676654815674 2.118633508682251 -0.24255229532718658 255 255 255
11.679872512817383 -7.969787120819092 -0.18885965645313263 255 255 255
21.2172794342041 0.026285724714398384 0.5064275860786438 255 255 255
6.5144853591918945 1.8961818218231201 -0.9818045496940613 255 255 255
12.977823257446289 -0.437832236289978 -0.973261296749115 255 255 255
3.4248850345611572 2.2912790775299072 -0.30447277426719666 255 255 255
10.303936004638672 3.806518077850342 -0.19831323623657227 255 255 255
6.4379048347473145 1.0506478548049927 -1.006249189376831 255 255 255
15.17780590057373 -2.2833938598632812 -1.7504825592041016 255 255 255
6.544294357299805 -1.6678149700164795 -1.757698893547058 255 255 255
9.523468971252441 -0.6668098568916321 -1.6100441217422485 255 255 255
6.555414199829102 1.8455466032028198 -1.2056893110275269 255 255 255
11.840559959411621 -7.650659561157227 0.4247816801071167 255 255 255
40.29829406738281 -17.185192108154297 1.2928369045257568 255 255 255
5.178285598754883 -3.171337127685547 -0.9644837379455566 255 255 255
34.96337127685547 -7.589097499847412 -1.406083583831787 255 255 255
8.623875617980957 0.35309648513793945 -0.9985044002532959 255 255 255
10.172571182250977 3.6753897666931152 -0.2579501271247864 255 255 255
18.000492095947266 4.21334171295166 0.48610633611679077 255 255 255
13.778175354003906 4.13254976272583 -0.9569186568260193 255 255 255
17.792428970336914 5.548706531524658 -0.045663367956876755 255 255 255
5.316616535186768 -3.0365045070648193 -1.2130496501922607 255 255 255
18.06443977355957 3.686908006668091 0.4138312041759491 255 255 255
11.983315467834473 -3.6178746223449707 -1.7567180395126343 255 255 255
17.073461532592773 2.4732158184051514 -0.25108566880226135 255 255 255
8.911828994750977 1.5772569179534912 -0.4639420211315155 255 255 255
6.819382667541504 1.1094019412994385 -0.7011694312095642 255 255 255
12.891166687011719 4.865215301513672 -0.7140603065490723 255 255 255
3.881798267364502 2.0342957973480225 -0.8643485307693481 255 255 255
13.276585578918457 -0.9747554063796997 -1.413841962814331 255 255 255
75.96080780029297 -14.279942512512207 1.3706687688827515 255 255 255
12.854096412658691 6.696230411529541 -0.7683482766151428 255 255 255
14.065838813781738 6.546004772186279 -0.5115271806716919 255 255 255
9.210443496704102 4.028715133666992 0.6244697570800781 255 255 255
17.984182357788086 -8.522369384765625 -1.7968802452087402 255 255 255
7.570766448974609 2.142258882522583 -0.4558226764202118 255 255 255
12.596049308776855 6.428386688232422 -0.8297585248947144 255 255 255
40.212677001953125 -17.26124382019043 0.2857728898525238 255 255 255
37.01397705078125 -1.1828503608703613 0.7941575050354004 255 255 255
14.79888916015625 -6.477728843688965 -1.8700056076049805 255 255 255
13.222430229187012 4.249906063079834 -0.08667813986539841 255 255 255
21.550613403320312 1.0172815322875977 -0.40216928720474243 255 255 255
4.101001739501953 1.9790605306625366 -0.8109175562858582 255 255 255
6.644663333892822 -1.5285266637802124 -1.736640214920044 255 255 255
25.516971588134766 -11.876795768737793 -1.708808422088623 255 255 255
12.573387145996094 7.639142036437988 -0.5778815746307373 255 255 255
7.899998188018799 1.0140788555145264 -0.227777898311615 255 255 255
27.755842208862305 -2.1993961334228516 -0.3677341043949127 255 255 255
53.94398498535156 -15.60758113861084 0.19272638857364655 255 255 255
12.22906494140625 -0.1838795691728592 -1.5370460748672485 255 255 255
14.10184383392334 -3.972353219985962 -1.6740843057632446 255 255 255
22.65192413330078 -11.215168952941895 -0.10944345593452454 255 255 255
9.175091743469238 3.3988687992095947 -0.8359466791152954 255 255 255
9.853052139282227 -7.700735092163086 -0.4223029911518097 255 255 255
13.29071044921875 -1.0891765356063843 -0.3110370337963104 255 255 255
40.06125259399414 -9.923821449279785 -0.8148146271705627 255 255 255
13.372509002685547 -7.601822376251221 0.6908353567123413 255 255 255
23.59309196472168 -7.604927062988281 -1.6321277618408203 255 255 255
5.107295513153076 -3.634765386581421 -0.9150481820106506 255 255 255
6.304914474487305 1.443321704864502 -1.1419801712036133 255 255 255
57.08921813964844 -8.263436317443848 1.7450872659683228 255 255 255
4.943501949310303 3.1440577507019043 -0.43056783080101013 255 255 255
5.347361087799072 -2.86122989654541 -1.2999074459075928 255 255 255
45.30107498168945 -11.558048248291016 -1.21544349193573 255 255 255
8.89690113067627 3.929922103881836 0.42419081926345825 255 255 255
10.44122314453125 -3.1306259632110596 -1.57492196559906 255 255 255
8.379459381103516 -3.4383127689361572 -1.6949094533920288 255 255 255
13.141790390014648 -0.025503896176815033 -0.6718056201934814 255 255 255
6.415493965148926 4.577150344848633 0.17630428075790405 255 255 255
6.558194160461426 4.682443618774414 -0.17187340557575226 255 255 255
3.723224639892578 2.3284926414489746 -0.25497689843177795 255 255 255
6.358405113220215 1.8936247825622559 -0.9251391291618347 255 255 255
10.118846893310547 5.781186580657959 0.2590802013874054 255 255 255
14.642724990844727 -3.869229316711426 -1.5686314105987549 255 255 255
16.098838806152344 -9.366737365722656 -1.2350637912750244 255 255 255
14.099477767944336 -0.1942700743675232 -1.439500331878662 255 255 255
41.746849060058594 -3.2172296047210693 0.7694715857505798 255 255 255
12.733824729919434 -5.203718662261963 -1.8072689771652222 255 255 255
3.443410873413086 2.27138352394104 -0.3059249818325043 255 255 255
3.350520133972168 2.1399619579315186 -0.8116474151611328 255 255 255
3.370466709136963 2.5322742462158203 -0.164206400513649 255 255 255
26.67464828491211 -4.077785968780518 -1.3217860460281372 255 255 255
19.209386825561523 5.189702033996582 0.03287254273891449 255 255 255
30.108686447143555 -10.067567825317383 -1.575357437133789 255 255 255
23.702102661132812 -11.694494247436523 -0.9210959076881409 255 255 255
40.36800765991211 -12.047797203063965 -1.387177586555481 255 255 255
5.290340423583984 -2.82188081741333 -1.3870083093643188 255 255 255
6.309858798980713 -0.08578185737133026 -1.7105315923690796 255 255 255
13.240023612976074 0.1331271231174469 -0.41000038385391235 255 255 255
18.328079223632812 3.341765880584717 0.36379939317703247 255 255 255
13.822309494018555 -1.4629837274551392 -1.5593370199203491 255 255 255
8.641295433044434 -1.8311686515808105 -1.6885088682174683 255 255 255
23.899572372436523 -8.759532928466797 -0.5741952061653137 255 255 255
10.517589569091797 5.254698753356934 -1.0548471212387085 255 255 255
12.793660163879395 6.521615028381348 -0.7954387664794922 255 255 255
8.654983520507812 0.9509207606315613 -0.12289615720510483 255 255 255
13.258993148803711 7.595556259155273 -0.5116298794746399 255 255 255
7.5108747482299805 0.7968193888664246 -1.3824223279953003 255 255 255
9.589224815368652 3.6289820671081543 0.3250654339790344 255 255 255
41.861297607421875 -17.399627685546875 0.6688899993896484 255 255 255
8.189846992492676 -2.9555153846740723 -1.7676783800125122 255 255 255
7.291236877441406 0.8866841793060303 -0.6889075636863708 255 255 255
12.483416557312012 -3.96122670173645 -1.674885630607605 255 255 255
10.62441349029541 -7.65268087387085 -0.18502242863178253 255 255 255
12.834532737731934 -2.6599438190460205 -1.6734850406646729 255 255 255
7.8791823387146 -2.5209317207336426 -1.7714486122131348 255 255 255
6.633746147155762 1.2583850622177124 -0.8073546290397644 255 255 255
9.610607147216797 -7.884833812713623 0.3337821960449219 255 255 255
5.195621490478516 -3.139198064804077 -1.0099692344665527 255 255 255
18.43311309814453 1.5218133926391602 -0.39542099833488464 255 255 255
22.437763214111328 -10.393601417541504 0.9633182287216187 255 255 255
2.9635889530181885 2.392918348312378 -0.2308291792869568 255 255 255
15.657618522644043 7.360370635986328 -0.08283181488513947 255 255 255
3.011009454727173 2.4102563858032227 -0.6766948699951172 255 255 255
33.902225494384766 -4.720547199249268 -1.1128969192504883 255 255 255
4.3918232917785645 1.7845200300216675 -0.7516604661941528 255 255 255
6.569659233093262 1.1867308616638184 -1.5888235569000244 255 255 255
6.626676559448242 -2.957409620285034 -1.838592290878296 255 255 255
20.22224235534668 4.909029006958008 0.007801912724971771 255 255 255
3.1333818435668945 2.2481882572174072 -0.1602838635444641 255 255 255
8.875399589538574 -7.1015706062316895 -1.1536140441894531 255 255 255
7.045347213745117 1.0370601415634155 -0.6748635172843933 255 255 255
8.834922790527344 0.22999894618988037 -0.6517820358276367 255 255 255
4.691283702850342 1.8702130317687988 -1.0750186443328857 255 255 255
7.873380184173584 0.051812753081321716 -1.6308435201644897 255 255 255
6.363807678222656 1.6524440050125122 -1.1459074020385742 255 255 255
31.769880294799805 -7.337728500366211 -1.4690709114074707 255 255 255
11.384468078613281 5.363001346588135 -0.9393019676208496 255 255 255
5.06647253036499 -3.7234606742858887 -0.9927130937576294 255 255 255
17.138124465942383 -6.193284034729004 -1.6693873405456543 255 255 255
8.511445045471191 0.7365178465843201 -0.11226145178079605 255 255 255
6.430881500244141 1.9859331846237183 -0.9366276264190674 255 255 255
9.446097373962402 -3.9140572547912598 -1.794603705406189 255 255 255
19.236207962036133 5.310604572296143 -0.2274562567472458 255 255 255
6.887166976928711 0.7835782170295715 -0.6403141617774963 255 255 255
20.12785530090332 -10.657564163208008 -0.24577856063842773 255 255 255
23.209049224853516 -0.8351280689239502 0.7569187879562378 255 255 255
12.698395729064941 -8.295465469360352 -0.9140409827232361 255 255 255
9.83586311340332 -3.4089908599853516 -1.7331290245056152 255 255 255
10.341962814331055 -3.3110930919647217 -1.7229984998703003 255 255 255
10.373255729675293 5.143195152282715 -0.3126790225505829 255 255 255
6.277864456176758 1.2521945238113403 -1.5782792568206787 255 255 255
21.530838012695312 -11.013160705566406 -0.7090209126472473 255 255 255
8.696791648864746 -7.140348434448242 -0.5204245448112488 255 255 255
5.276217460632324 -3.0224931240081787 -1.3573881387710571 255 255 255
4.6135406494140625 1.7953813076019287 -0.8800376653671265 255 255 255
8.179143905639648 -3.256380081176758 -1.7741867303848267 255 255 255
18.769132614135742 0.26443397998809814 -0.2700165808200836 255 255 255
12.955466270446777 -0.9091523289680481 -1.1372747421264648 255 255 255
7.034144878387451 -2.360562801361084 -1.6814231872558594 255 255 255
6.0601396560668945 -2.984814405441284 -1.3063783645629883 255 255 255
10.849453926086426 3.6022439002990723 0.14662925899028778 255 255 255
4.2131547927856445 1.9302465915679932 -1.134439468383789 255 255 255
12.960142135620117 4.577131271362305 -0.4075746238231659 255 255 255
12.741530418395996 -5.408913612365723 -1.7944566011428833 255 255 255
5.246798992156982 -3.126237154006958 -1.2200775146484375 255 255 255
14.718228340148926 -5.801507472991943 -1.750208854675293 255 255 255
12.777130126953125 7.6763997077941895 -0.5833120942115784 255 255 255
6.358947277069092 4.484435558319092 0.41207394003868103 255 255 255
5.322588920593262 -3.172262191772461 -1.2198803424835205 255 255 255
19.67990493774414 4.997912883758545 0.8184101581573486 255 255 255
3.0176146030426025 2.3445019721984863 -0.6648944020271301 255 255 255
13.921494483947754 -0.4029064476490021 -0.4408080279827118 255 255 255
7.824615478515625 -3.495114803314209 -1.3596220016479492 255 255 255
13.21098518371582 6.673229217529297 -0.628624677658081 255 255 255
7.975021839141846 -2.2743966579437256 -1.8005479574203491 255 255 255
18.856822967529297 -3.8577589988708496 -1.5228217840194702 255 255 255
10.095571517944336 -7.6828413009643555 -0.5249305963516235 255 255 255
32.06965255737305 -5.22111177444458 -1.215586543083191 255 255 255
6.574617385864258 -2.7031376361846924 -1.7209501266479492 255 255 255
11.207073211669922 4.755312442779541 -0.9397785067558289 255 255 255
6.331318378448486 1.1712833642959595 -1.1244678497314453 255 255 255
9.45263385772705 4.627918243408203 0.39118853211402893 255 255 255
13.314830780029297 0.2915579676628113 -0.7376590967178345 255 255 255
9.982779502868652 -2.1580681800842285 -1.6044832468032837 255 255 255
12.919482231140137 -0.5256366729736328 -0.9874136447906494 255 255 255
3.6886556148529053 2.0435192584991455 -0.9217155575752258 255 255 255
4.640047550201416 1.7871371507644653 -0.8488638997077942 255 255 255
15.145849227905273 -1.768600344657898 -0.6075975298881531 255 255 255
17.474258422851562 5.83048677444458 -0.4835919439792633 255 255 255
31.981687545776367 -6.15639591217041 -0.5161042809486389 255 255 255
7.135484218597412 2.0347211360931396 -1.5715550184249878 255 255 255
3.5267555713653564 2.077510356903076 -0.7239766120910645 255 255 255
6.432739734649658 4.628100872039795 0.5048924684524536 255 255 255
43.65969467163086 -3.9702041149139404 0.8544151186943054 255 255 255
13.349682807922363 -5.146032333374023 -1.8068761825561523 255 255 255
6.871093273162842 -3.2191200256347656 -1.752408504486084 255 255 255
14.49807071685791 -2.8268425464630127 -1.7670557498931885 255 255 255
13.032235145568848 -0.19581864774227142 -1.0314712524414062 255 255 255
11.220635414123535 5.892220973968506 -0.9283703565597534 255 255 255
6.6756591796875 0.28567957878112793 -1.5622978210449219 255 255 255
16.329689025878906 9.021197319030762 0.7557507157325745 255 255 255
5.280374050140381 -3.471762180328369 -0.45033785700798035 255 255 255
10.45500659942627 -7.542178630828857 0.2378341257572174 255 255 255
7.0132551193237305 0.24913789331912994 -1.566827416419983 255 255 255
6.875340461730957 -1.9397417306900024 -1.7784134149551392 255 255 255
6.046205520629883 1.199296474456787 -1.6046043634414673 255 255 255
34.50341033935547 -2.1471903324127197 0.6964215040206909 255 255 255
10.639086723327637 -8.615131378173828 0.07418718934059143 255 255 255
8.695252418518066 -1.1469041109085083 -1.635149359703064 255 255 255
15.256647109985352 -6.785606861114502 -1.6986273527145386 255 255 255
9.511517524719238 -0.3389119803905487 -1.5587841272354126 255 255 255
7.505223274230957 0.5493953227996826 -1.692061185836792 255 255 255
28.467363357543945 -3.9468586444854736 -1.1367980241775513 255 255 255
5.007056713104248 -3.8801159858703613 -1.1554224491119385 255 255 255
6.540443420410156 1.5963245630264282 -0.7731532454490662 255 255 255
12.59652328491211 7.403584003448486 -0.5581473112106323 255 255 255
9.775491714477539 3.5921084880828857 0.19620506465435028 255 255 255
9.905868530273438 -1.0027292966842651 -1.6628309488296509 255 255 255
3.173332452774048 2.269561290740967 -0.19428998231887817 255 255 255
5.013260841369629 -3.345582962036133 -0.9761417508125305 255 255 255
8.949155807495117 0.36026743054389954 -0.5091447830200195 255 255 255
15.433435440063477 -4.560787677764893 -1.6077377796173096 255 255 255
9.402586936950684 0.20177021622657776 -1.4634555578231812 255 255 255
19.888681411743164 -3.6896510124206543 -1.4698628187179565 255 255 255
24.29158592224121 -5.429376602172852 -1.5668559074401855 255 255 255
6.466497421264648 1.0859724283218384 -1.1139475107192993 255 255 255
4.778435230255127 1.629467248916626 -1.0766332149505615 255 255 255
10.457427024841309 -1.4727985858917236 -1.659698247909546 255 255 255
9.461891174316406 -3.0967092514038086 -1.6805546283721924 255 255 255
19.426509857177734 5.101707935333252 0.6750584840774536 255 255 255
18.756711959838867 5.2404022216796875 0.2603272497653961 255 255 255
21.276905059814453 -5.033931255340576 -1.5417815446853638 255 255 255
10.353743553161621 6.402087211608887 0.506083607673645 255 255 255
9.751409530639648 -7.5007805824279785 -0.7169679999351501 255 255 255
20.68229866027832 -7.943508625030518 -1.6438466310501099 255 255 255
3.5024590492248535 2.774890661239624 -0.11772904545068741 255 255 255
21.462087631225586 0.8645530939102173 -0.05283831059932709 255 255 255
3.378631353378296 2.277620792388916 -0.3712472915649414 255 255 255
3.694812774658203 2.0916285514831543 -0.8343263268470764 255 255 255
16.24156951904297 -5.9289727210998535 -1.719508409500122 255 255 255
12.322908401489258 -0.933890163898468 -1.5532022714614868 255 255 255
9.04341983795166 -0.43263524770736694 -1.6579844951629639 255 255 255
9.004634857177734 -0.029627777636051178 -1.6396381855010986 255 255 255
9.975382804870605 5.246737003326416 -0.0038621893618255854 255 255 255
12.325517654418945 6.813371181488037 -0.8107991814613342 255 255 255
9.285964965820312 -2.92948317527771 -1.7111175060272217 255 255 255
13.66621208190918 -8.711092948913574 -0.7706318497657776 255 255 255
3.3263587951660156 2.3725624084472656 -0.24817660450935364 255 255 255
6.405370235443115 1.5481187105178833 -0.9673762321472168 255 255 255
22.351741790771484 -10.770572662353516 0.6591575741767883 255 255 255
19.666257858276367 -7.9052839279174805 -0.4444044828414917 255 255 255
7.837018966674805 -3.212351083755493 -1.8262741565704346 255 255 255
9.910367012023926 -3.033052682876587 -1.7651784420013428 255 255 255
10.985679626464844 -8.057034492492676 0.5118683576583862 255 255 255
8.05556869506836 -1.0428416728973389 -1.6611336469650269 255 255 255
20.66678237915039 -10.728962898254395 0.31291037797927856 255 255 255
10.532170295715332 4.097185134887695 0.27619969844818115 255 255 255
6.337990760803223 1.9918309450149536 -1.1450750827789307 255 255 255
6.509701251983643 0.4329356849193573 -1.711912989616394 255 255 255
22.17007064819336 -10.744915008544922 -1.7590810060501099 255 255 255
19.160398483276367 -8.137252807617188 -1.0746970176696777 255 255 255
7.087874412536621 -1.7230561971664429 -1.6717971563339233 255 255 255
6.856100559234619 4.530019283294678 0.3590675890445709 255 255 255
6.215013027191162 0.712169349193573 -1.6916362047195435 255 255 255
8.630101203918457 -0.9019771218299866 -1.593410611152649 255 255 255
39.22378158569336 -6.450986862182617 -1.0311570167541504 255 255 255
10.166582107543945 5.067804336547852 0.064254529774189 255 255 255
20.096620559692383 4.869430065155029 -0.8592178821563721 255 255 255
3.4142894744873047 2.0641579627990723 -0.5948725342750549 255 255 255
26.45941925048828 -4.9258646965026855 -1.4847760200500488 255 255 255
12.730817794799805 -8.269166946411133 -0.8323851227760315 255 255 255
6.730005264282227 2.192190408706665 -0.9829378128051758 255 255 255
6.791921615600586 1.3578717708587646 -1.6410942077636719 255 255 255
7.627406597137451 -2.6364681720733643 -1.6916979551315308 255 255 255
52.4162483215332 -14.179831504821777 -1.195680856704712 255 255 255
11.413016319274902 -8.117510795593262 -0.7927509546279907 255 255 255
7.195066928863525 0.7716209888458252 -1.1747254133224487 255 255 255
3.075498342514038 2.146045446395874 -0.7877338528633118 255 255 255
8.397340774536133 0.5242355465888977 -1.2161158323287964 255 255 255
6.259479522705078 1.3036638498306274 -1.6579290628433228 255 255 255
20.760459899902344 -10.721672058105469 0.36490926146507263 255 255 255
4.958122730255127 -3.8861353397369385 -1.3870456218719482 255 255 255
9.206507682800293 0.43164393305778503 -1.5353198051452637 255 255 255
17.214340209960938 -7.3266777992248535 -1.7713544368743896 255 255 255
18.452373504638672 -9.96214485168457 -1.3296555280685425 255 255 255
12.982858657836914 -0.16812525689601898 -1.600193977355957 255 255 255
7.714898586273193 6.387678623199463 -0.295865923166275 255 255 255
22.979528427124023 -0.5813047885894775 0.03085247427225113 255 255 255
15.63625717163086 6.898592948913574 -0.4373539090156555 255 255 255
14.691448211669922 -4.239977836608887 -1.7079837322235107 255 255 255
8.44689655303955 -0.493392676115036 -1.6287921667099 255 255 255
10.522804260253906 6.469690322875977 0.284676194190979 255 255 255
15.736833572387695 6.3979387283325195 -0.6533458828926086 255 255 255
68.3368911743164 -12.018457412719727 1.2675063610076904 255 255 255
6.670541286468506 1.9569973945617676 -1.6431317329406738 255 255 255
7.566212177276611 -0.7901350259780884 -1.6280109882354736 255 255 255
8.132926940917969 0.708728551864624 -0.6895211338996887 255 255 255
19.913175582885742 5.082146644592285 -0.6432028412818909 255 255 255
74.92362213134766 -16.227277755737305 1.9669041633605957 255 255 255
8.143996238708496 0.523852527141571 -1.5733078718185425 255 255 255
13.523988723754883 -1.2288200855255127 -1.3498408794403076 255 255 255
6.508866310119629 1.2470065355300903 -0.9840646982192993 255 255 255
3.941812753677368 1.9601174592971802 -0.9311517477035522 255 255 255
12.987870216369629 -0.39893457293510437 -0.9253330230712891 255 255 255
9.432518005371094 1.268009066581726 -0.39630618691444397 255 255 255
6.970142841339111 0.9131829738616943 -0.8532133102416992 255 255 255
3.7398157119750977 2.055232286453247 -0.8037995100021362 255 255 255
10.115795135498047 3.6996877193450928 -0.27098533511161804 255 255 255
8.870613098144531 0.7964076995849609 -1.5221686363220215 255 255 255
6.009337902069092 -3.9942309856414795 -0.7559102773666382 255 255 255
3.2082128524780273 2.5301434993743896 -0.16174966096878052 255 255 255
4.437878131866455 2.480785369873047 -0.6213154792785645 255 255 255
6.148671627044678 -3.4790360927581787 -0.8396841287612915 255 255 255
5.032708644866943 -3.5248489379882812 -1.4010977745056152 255 255 255
8.994966506958008 -3.467167854309082 -1.7952148914337158 255 255 255
10.402566909790039 3.231926679611206 -0.8073878884315491 255 255 255
21.528919219970703 1.3089654445648193 0.5959880948066711 255 255 255
7.7965312004089355 0.7673648595809937 -1.309887170791626 255 255 255
3.541516065597534 2.076944589614868 -0.8528063297271729 255 255 255
27.67046356201172 -2.117375612258911 -0.41289398074150085 255 255 255
15.662302017211914 7.337745666503906 -0.412434458732605 255 255 255
12.80476188659668 -4.4501729011535645 -1.7577002048492432 255 255 255
12.594134330749512 4.269690036773682 -0.905227780342102 255 255 255
9.066094398498535 3.4908361434936523 -1.2069345712661743 255 255 255
6.766781330108643 4.585071086883545 0.19662778079509735 255 255 255
10.850555419921875 -4.6867146492004395 -1.85710608959198 255 255 255
3.563385248184204 2.029670000076294 -0.8512426018714905 255 255 255
39.39759826660156 -10.001347541809082 -1.325827717781067 255 255 255
10.179558753967285 5.212788105010986 0.22302155196666718 255 255 255
6.577672004699707 1.0055755376815796 -0.9999959468841553 255 255 255
13.069950103759766 4.472668170928955 -0.567633867263794 255 255 255
21.46273422241211 -0.35936614871025085 0.8068199157714844 255 255 255
39.84011459350586 -18.464269638061523 0.08741976320743561 255 255 255
19.179677963256836 1.6062215566635132 0.6438472270965576 255 255 255
14.988409042358398 -8.9960298538208 0.3751075565814972 255 255 255
19.048839569091797 -8.011968612670898 -0.9968002438545227 255 255 255
22.56507682800293 -4.159413814544678 -1.4339218139648438 255 255 255
6.779339790344238 0.9085147380828857 -1.3798388242721558 255 255 255
6.187336444854736 0.9029554128646851 -1.6141408681869507 255 255 255
6.374675273895264 -0.8750623464584351 -1.6846301555633545 255 255 255
21.532424926757812 -10.9573392868042 -1.2627074718475342 255 255 255
6.852358818054199 0.9437490701675415 -0.6700851321220398 255 255 255
8.320206642150879 -0.38603129982948303 -1.6355491876602173 255 255 255
22.14063262939453 -11.315671920776367 -0.6356260180473328 255 255 255
9.96769905090332 -2.482956647872925 -1.665431261062622 255 255 255
12.003379821777344 -2.8768224716186523 -1.6662300825119019 255 255 255
9.45016098022461 3.9477455615997314 0.2841530442237854 255 255 255
19.65992546081543 5.189058303833008 0.048602394759655 255 255 255
35.08818817138672 -2.509373188018799 1.0057517290115356 255 255 255
6.882270336151123 0.8167608380317688 -0.9421202540397644 255 255 255
6.286710262298584 1.4631413221359253 -1.1201547384262085 255 255 255
6.484240531921387 1.3531469106674194 -1.2768455743789673 255 255 255
6.605179786682129 4.599018573760986 -0.2343422770500183 255 255 255
10.785001754760742 -7.401329517364502 0.32412007451057434 255 255 255
6.483202934265137 1.9961419105529785 -1.5849180221557617 255 255 255
6.388830184936523 1.463101863861084 -1.6235586404800415 255 255 255
6.788422107696533 -0.8943943977355957 -1.6622190475463867 255 255 255
6.690923690795898 4.6474809646606445 -0.2654920816421509 255 255 255
19.237943649291992 -6.514430999755859 -1.6809117794036865 255 255 255
27.02585792541504 -6.749361991882324 -1.5275639295578003 255 255 255
4.389057636260986 1.9141545295715332 -0.5202358961105347 255 255 255
3.4241247177124023 2.176581859588623 -0.36503511667251587 255 255 255
26.883012771606445 -6.323686599731445 -1.4653722047805786 255 255 255
6.395985126495361 -0.12447082996368408 -1.6161320209503174 255 255 255
6.841238021850586 4.50278902053833 -0.21419605612754822 255 255 255
7.272549629211426 -0.7814713716506958 -1.5630742311477661 255 255 255
17.06707763671875 -5.012487888336182 -1.7071021795272827 255 255 255
13.86452865600586 -7.357295513153076 0.7487711906433105 255 255 255
7.788870811462402 0.6192381978034973 -1.0096452236175537 255 255 255
26.48189926147461 -4.76064395904541 -1.5067055225372314 255 255 255
6.2798967361450195 0.35408544540405273 -1.58597731590271 255 255 255
17.768686294555664 2.43911075592041 0.20886611938476562 255 255 255
75.85685729980469 -15.556365013122559 2.8893985748291016 255 255 255
19.363988876342773 -7.62834358215332 -0.7251689434051514 255 255 255
6.6561689376831055 4.582343578338623 -0.0442824624478817 255 255 255
14.556675910949707 -0.6917665004730225 -1.5911246538162231 255 255 255
9.722796440124512 -7.368715763092041 -1.0412043333053589 255 255 255
6.6235809326171875 1.2060703039169312 -0.8392205238342285 255 255 255
17.522886276245117 3.161728620529175 0.03918059542775154 255 255 255
11.045062065124512 -2.763615846633911 -1.7678505182266235 255 255 255
18.63386344909668 0.4714188873767853 -0.6249090433120728 255 255 255
15.09576416015625 -1.9003987312316895 -1.5915322303771973 255 255 255
6.644986629486084 0.5658876299858093 -1.589024543762207 255 255 255
34.248817443847656 -5.053284645080566 -1.1143336296081543 255 255 255
45.04006576538086 -6.828877925872803 0.37883469462394714 255 255 255
19.2551326751709 -7.624342918395996 -1.1906625032424927 255 255 255
4.038500785827637 1.9207326173782349 -0.8369880318641663 255 255 255
18.929729461669922 -8.517404556274414 -1.1821951866149902 255 255 255
12.450575828552246 -4.393696308135986 -1.6985608339309692 255 255 255
12.923856735229492 -0.7875696420669556 -1.1108335256576538 255 255 255
18.75928497314453 5.495865345001221 -0.17555180191993713 255 255 255
9.705931663513184 5.343822002410889 0.17177996039390564 255 255 255
11.084177017211914 -7.961502552032471 -0.7946552038192749 255 255 255
7.974636077880859 1.4082846641540527 -0.12837833166122437 255 255 255
11.785979270935059 -0.21642661094665527 -1.6590592861175537 255 255 255
