ply
format ascii 1.0
element vertex 691
property float x
property float y
property float z
property uchar red
property uchar green
property uchar blue
end_header
5.1990966796875 -3.4040348529815674 -1.3656272888183594 255 255 255
75.59368896484375 -14.350828170776367 1.3469206094741821 255 255 255
13.041998863220215 -0.4064788222312927 -0.6419223546981812 255 255 255
5.235660076141357 -3.6412227153778076 -1.2396032810211182 255 255 255
25.376237869262695 -11.367257118225098 -1.3514525890350342 255 255 255
11.017172813415527 6.187526702880859 -0.9789001941680908 255 255 255
34.385738372802734 -0.7296743392944336 0.969767153263092 255 255 255
9.47978687286377 -7.102773666381836 -0.5385409593582153 255 255 255
6.400075435638428 4.787261486053467 0.4048474431037903 255 255 255
18.487218856811523 2.0690388679504395 -0.08063286542892456 255 255 255
4.131901741027832 1.9720219373703003 -0.34801873564720154 255 255 255
6.065505504608154 5.022994041442871 0.15672554075717926 255 255 255
16.9196720123291 -3.1938579082489014 -1.6120597124099731 255 255 255
5.646761894226074 -3.4182496070861816 -0.26312780380249023 255 255 255
13.257909774780273 0.3736554980278015 -0.5057276487350464 255 255 255
10.33272647857666 0.07713440805673599 -1.5214723348617554 255 255 255
12.415131568908691 -6.836066722869873 0.5336726307868958 255 255 255
7.541393280029297 0.36578530073165894 -1.6043353080749512 255 255 255
23.109859466552734 -4.799163341522217 -1.538732647895813 255 255 255
7.967808723449707 -3.032465696334839 -1.7093037366867065 255 255 255
19.563739776611328 -7.309864044189453 -0.20605701208114624 255 255 255
15.258910179138184 -3.240563154220581 -1.6746175289154053 255 255 255
17.537561416625977 6.214846134185791 0.8541457056999207 255 255 255
3.687384843826294 2.424234390258789 -0.11612347513437271 255 255 255
17.811281204223633 2.842846393585205 -0.028769860044121742 255 255 255
32.66362380981445 -8.49759578704834 -1.4942256212234497 255 255 255
8.602797508239746 -1.353630781173706 -1.7098771333694458 255 255 255
8.258849143981934 1.0394994020462036 -0.4067385494709015 255 255 255
6.315501689910889 1.7514151334762573 -1.600406527519226 255 255 255
22.741453170776367 2.654057502746582 0.9969187378883362 255 255 255
11.982243537902832 -2.9964094161987305 -1.6449031829833984 255 255 255
16.276762008666992 -5.253908634185791 -1.7089717388153076 255 255 255
14.196682929992676 -4.509191989898682 -1.6449048519134521 255 255 255
11.886717796325684 -7.9275946617126465 0.5419310331344604 255 255 255
7.3150763511657715 0.8259948492050171 -0.5873633027076721 255 255 255
5.090595722198486 -3.570988178253174 -0.969985842704773 255 255 255
6.874115943908691 -0.43912819027900696 -1.66183340549469 255 255 255
3.6380438804626465 2.4764366149902344 -0.13670822978019714 255 255 255
12.442784309387207 -1.6689647436141968 -1.598617434501648 255 255 255
4.560269832611084 1.9260321855545044 -0.9975884556770325 255 255 255
3.0958361625671387 2.434797763824463 -0.1860540360212326 255 255 255
26.469995498657227 -11.802385330200195 -0.548146665096283 255 255 255
18.39503288269043 2.8969411849975586 0.5767662525177002 255 255 255
8.139397621154785 0.7189534902572632 -0.8842604756355286 255 255 255
9.680704116821289 -7.463285446166992 0.07391732186079025 255 255 255
8.88143539428711 1.0181363821029663 -1.6158040761947632 255 255 255
26.55202865600586 -4.1884684562683105 -1.418207049369812 255 255 255
37.1889762878418 -10.922917366027832 -1.5660821199417114 255 255 255
15.443037986755371 -8.752346992492676 -0.8756006956100464 255 255 255
25.51825714111328 -11.6730375289917 -0.6406384706497192 255 255 255
3.8135645389556885 2.1329028606414795 -0.7489882111549377 255 255 255
6.548926830291748 -1.8834480047225952 -1.6720843315124512 255 255 255
6.622711181640625 -1.045636773109436 -1.7203376293182373 255 255 255
4.676763534545898 1.788259506225586 -0.734576404094696 255 255 255
14.784355163574219 -4.541694164276123 -1.673184871673584 255 255 255
14.191099166870117 -3.1776695251464844 -1.7071657180786133 255 255 255
3.6370737552642822 3.0135982036590576 -0.6127344369888306 255 255 255
9.460526466369629 -3.6684343814849854 -1.755092740058899 255 255 255
12.209092140197754 4.930080413818359 -0.917522132396698 255 255 255
5.1999711990356445 -3.072411298751831 -1.2916977405548096 255 255 255
10.059004783630371 -7.207679748535156 -0.45953747630119324 255 255 255
54.674293518066406 -4.456571102142334 1.0301513671875 255 255 255
9.265165328979492 0.5302674174308777 -1.2923610210418701 255 255 255
8.543869972229004 3.9763238430023193 -0.8111024498939514 255 255 255
9.466639518737793 -0.16361510753631592 -1.565458059310913 255 255 255
7.9641432762146 1.0056771039962769 -1.5963743925094604 255 255 255
7.720818042755127 -2.0419998168945312 -1.7669999599456787 255 255 255
11.565276145935059 7.137740612030029 -1.0109102725982666 255 255 255
6.382721900939941 -0.8875083923339844 -1.699263572692871 255 255 255
14.679574012756348 -8.545388221740723 -0.8014728426933289 255 255 255
28.344860076904297 -12.334174156188965 -0.15199777483940125 255 255 255
3.974886178970337 2.0796291828155518 -1.0017437934875488 255 255 255
3.4845991134643555 2.085092544555664 -0.8234972953796387 255 255 255
33.897247314453125 -5.9413580894470215 -1.300276279449463 255 255 255
3.4369537830352783 2.2661962509155273 -0.795572817325592 255 255 255
20.903972625732422 0.5499774813652039 -0.32341283559799194 255 255 255
20.343055725097656 0.4904400110244751 -0.22069503366947174 255 255 255
6.430316925048828 1.675558090209961 -1.6728779077529907 255 255 255
8.553236961364746 -0.21167518198490143 -1.5879977941513062 255 255 255
5.870029926300049 -2.6320207118988037 -1.442906379699707 255 255 255
6.60499382019043 -0.06172788143157959 -1.6524205207824707 255 255 255
4.06762170791626 2.0727670192718506 -0.43636971712112427 255 255 255
8.138744354248047 0.76324063539505 -1.622553825378418 255 255 255
6.6897501945495605 1.767388939857483 -0.5281597375869751 255 255 255
3.1026835441589355 2.3631374835968018 -0.21357518434524536 255 255 255
61.783199310302734 -22.409334182739258 1.2137683629989624 255 255 255
6.295228481292725 -1.510867714881897 -1.7126659154891968 255 255 255
18.859224319458008 5.810370922088623 0.6557000875473022 255 255 255
13.43222427368164 -7.078853130340576 0.4429924190044403 255 255 255
9.668157577514648 -7.38920259475708 0.14308002591133118 255 255 255
5.191348075866699 1.7828022241592407 -1.1563681364059448 255 255 255
11.042403221130371 -8.152090072631836 0.0334361270070076 255 255 255
3.308478593826294 2.528733730316162 -0.09942261874675751 255 255 255
17.775068283081055 5.911853313446045 -0.7803513407707214 255 255 255
9.195927619934082 3.7980992794036865 -0.32254141569137573 255 255 255
3.8203482627868652 2.1050052642822266 -0.9790900349617004 255 255 255
6.739720344543457 1.1787257194519043 -1.332774043083191 255 255 255
6.991828441619873 6.228633403778076 0.2804979681968689 255 255 255
12.20443058013916 0.23240616917610168 -1.5597671270370483 255 255 255
6.643638610839844 1.2151753902435303 -1.4067981243133545 255 255 255
16.755477905273438 6.457151412963867 -0.5693932175636292 255 255 255
9.938218116760254 5.669064521789551 -0.1663842648267746 255 255 255
5.118975639343262 -3.487231731414795 -0.9056470990180969 255 255 255
15.721789360046387 -6.119096755981445 -1.7155152559280396 255 255 255
13.080276489257812 -0.7461771965026855 -0.7327842712402344 255 255 255
6.648421287536621 1.883914589881897 -0.6440320611000061 255 255 255
22.916370391845703 -10.53522777557373 -0.1954720914363861 255 255 255
31.75774574279785 -2.912160873413086 -0.7304863929748535 255 255 255
13.327615737915039 -0.6810444593429565 -0.41131964325904846 255 255 255
12.436586380004883 -8.29090404510498 0.7089808583259583 255 255 255
9.650643348693848 -7.507802486419678 0.11624728888273239 255 255 255
8.274584770202637 -2.6736953258514404 -1.630480170249939 255 255 255
3.2442078590393066 2.4727962017059326 -0.15769053995609283 255 255 255
31.67923927307129 -2.914238929748535 -0.9291225671768188 255 255 255
4.375506401062012 2.0033349990844727 -1.0174221992492676 255 255 255
5.073818206787109 1.8064521551132202 -1.1370792388916016 255 255 255
10.07914924621582 -2.0237271785736084 -1.7650545835494995 255 255 255
13.881702423095703 8.354780197143555 -0.2524086833000183 255 255 255
9.657597541809082 -7.208004951477051 -0.4979746639728546 255 255 255
6.62415885925293 2.3341565132141113 -0.776831865310669 255 255 255
12.645363807678223 7.582219123840332 -0.5390965342521667 255 255 255
6.269055366516113 1.7268472909927368 -1.005704641342163 255 255 255
18.47479248046875 2.44061017036438 0.1446344554424286 255 255 255
6.323217868804932 1.9980686902999878 -1.093205213546753 255 255 255
30.310182571411133 -9.010553359985352 -1.535452961921692 255 255 255
40.24822998046875 -16.497285842895508 0.38178175687789917 255 255 255
5.354905128479004 -3.0550098419189453 -0.9440727233886719 255 255 255
6.158737659454346 4.977726459503174 0.3661825358867645 255 255 255
8.705525398254395 -1.9825481176376343 -1.643890619277954 255 255 255
13.079607009887695 -0.2778383195400238 -1.5495578050613403 255 255 255
24.091882705688477 -7.459936141967773 -1.7134393453598022 255 255 255
7.456138610839844 0.8912830948829651 -1.3216533660888672 255 255 255
15.147871971130371 3.134981393814087 0.6266210675239563 255 255 255
15.58512020111084 7.978024482727051 0.16922827064990997 255 255 255
18.458019256591797 2.1383323669433594 0.08755099028348923 255 255 255
3.5065698623657227 2.1051738262176514 -0.9693683981895447 255 255 255
11.767498016357422 0.10332407057285309 -1.6576679944992065 255 255 255
7.1299967765808105 -2.0166587829589844 -1.698428750038147 255 255 255
7.349006175994873 0.7828128337860107 -0.7834479808807373 255 255 255
9.107827186584473 4.253028392791748 0.41719532012939453 255 255 255
54.42196273803711 -17.554676055908203 -0.5699576735496521 255 255 255
5.3209638595581055 -3.167722225189209 -1.3425335884094238 255 255 255
12.636476516723633 6.145219802856445 -0.8092834949493408 255 255 255
9.147950172424316 0.5859935879707336 -0.30521026253700256 255 255 255
10.45898151397705 -3.1061558723449707 -1.6349118947982788 255 255 255
9.489212036132812 -0.15255171060562134 -1.6847844123840332 255 255 255
8.991561889648438 0.5850046873092651 -0.32625141739845276 255 255 255
4.2130351066589355 2.0304765701293945 -0.5586050152778625 255 255 255
6.455443382263184 4.790461540222168 0.4137633442878723 255 255 255
5.235686302185059 -3.0281193256378174 -0.8370944857597351 255 255 255
6.293421268463135 1.774420976638794 -1.0636359453201294 255 255 255
3.552537202835083 2.15621018409729 -0.7550747990608215 255 255 255
18.329303741455078 -5.556298732757568 -1.6815088987350464 255 255 255
14.719778060913086 -3.3062639236450195 -1.6789747476577759 255 255 255
17.06833839416504 -4.186516761779785 -1.6053643226623535 255 255 255
6.239803314208984 4.986389636993408 -0.07240960001945496 255 255 255
7.4331440925598145 0.9742646813392639 -0.9207115173339844 255 255 255
13.465389251708984 -1.5172855854034424 -1.5065618753433228 255 255 255
7.763956546783447 1.0351004600524902 -0.21639513969421387 255 255 255
8.272350311279297 -3.0904483795166016 -1.7219576835632324 255 255 255
18.165746688842773 1.051055908203125 -0.8705393671989441 255 255 255
11.031087875366211 -3.7465765476226807 -1.715739130973816 255 255 255
9.623875617980957 -1.2074966430664062 -1.7252330780029297 255 255 255
13.653960227966309 -0.5760270357131958 -0.49236512184143066 255 255 255
13.052165985107422 -7.049830436706543 0.5999971032142639 255 255 255
11.296751022338867 5.660165309906006 -0.9033766984939575 255 255 255
32.004310607910156 -5.633162975311279 -0.43152210116386414 255 255 255
8.925439834594727 -6.716939926147461 -1.0593730211257935 255 255 255
13.19605541229248 -0.7852671146392822 -1.0963116884231567 255 255 255
6.995934963226318 1.733221173286438 -1.5969287157058716 255 255 255
8.341475486755371 4.052207946777344 -0.9393280148506165 255 255 255
10.709962844848633 4.093350887298584 0.16450989246368408 255 255 255
18.8525390625 0.9538245797157288 -0.26658788323402405 255 255 255
8.1500825881958 -0.8531578779220581 -1.6337207555770874 255 255 255
7.222020626068115 2.026144027709961 -0.5529345870018005 255 255 255
19.045940399169922 -4.300850868225098 -1.6797184944152832 255 255 255
9.295977592468262 0.8626810908317566 -1.5031720399856567 255 255 255
19.50654411315918 5.5733795166015625 -0.13094580173492432 255 255 255
43.130001068115234 -2.2829465866088867 0.7153158187866211 255 255 255
7.174403667449951 0.9915138483047485 -0.7676780223846436 255 255 255
14.277560234069824 -4.981506824493408 -1.6502325534820557 255 255 255
13.00901985168457 6.710090160369873 -0.821201741695404 255 255 255
20.025461196899414 5.578152179718018 -0.681948184967041 255 255 255
12.009111404418945 -2.0729479789733887 -1.6877496242523193 255 255 255
17.583295822143555 3.5242059230804443 0.6483775973320007 255 255 255
3.0171682834625244 2.3170785903930664 -0.7107622623443604 255 255 255
17.689992904663086 2.3149166107177734 0.7053484320640564 255 255 255
54.84475326538086 -4.333008766174316 0.6519689559936523 255 255 255
11.540299415588379 -7.667165279388428 -0.47317150235176086 255 255 255
10.031641006469727 -2.5549476146698 -1.6607117652893066 255 255 255
6.6280293464660645 2.1959853172302246 -0.8018835186958313 255 255 255
17.195894241333008 3.5523808002471924 0.5585641264915466 255 255 255
7.931127071380615 -0.15193338692188263 -1.6434813737869263 255 255 255
11.666478157043457 -7.257419586181641 0.0625150054693222 255 255 255
3.5690054893493652 2.9833779335021973 -0.6366412043571472 255 255 255
12.448274612426758 -0.8639621734619141 -1.6847124099731445 255 255 255
6.479385852813721 4.8890380859375 -0.11535020917654037 255 255 255
15.34022331237793 7.411525249481201 -0.2864038944244385 255 255 255
6.788862705230713 4.654283046722412 0.49015215039253235 255 255 255
4.733327388763428 1.9264748096466064 -0.9669605493545532 255 255 255
7.94658899307251 -0.5164043307304382 -1.6668179035186768 255 255 255
13.371773719787598 0.3541707396507263 -1.127644419670105 255 255 255
15.501893997192383 -7.737853527069092 0.7821378111839294 255 255 255
9.340357780456543 3.6243302822113037 -1.228311538696289 255 255 255
6.387580394744873 5.216042518615723 -0.14296472072601318 255 255 255
9.775106430053711 0.19933092594146729 -1.6198620796203613 255 255 255
7.928838729858398 -2.779655933380127 -1.709186315536499 255 255 255
9.18217945098877 -3.0834572315216064 -1.7055844068527222 255 255 255
7.272993087768555 0.4189021587371826 -1.6515147686004639 255 255 255
9.109617233276367 4.78158712387085 0.5099431276321411 255 255 255
13.925557136535645 -1.2615107297897339 -1.5059466361999512 255 255 255
9.05064582824707 -6.851306915283203 -1.3920836448669434 255 255 255
3.822021007537842 2.0443315505981445 -0.9901379346847534 255 255 255
14.863768577575684 -8.17287540435791 0.2263689786195755 255 255 255
13.401362419128418 5.904484748840332 -0.7462740540504456 255 255 255
13.968138694763184 0.039142463356256485 -0.48377445340156555 255 255 255
21.66206169128418 5.2721686363220215 -0.30069369077682495 255 255 255
4.302145481109619 1.854933261871338 -0.6717425584793091 255 255 255
7.356297969818115 0.9294403791427612 -1.2136098146438599 255 255 255
11.509758949279785 -7.666539192199707 -0.7374292016029358 255 255 255
9.914407730102539 5.996095657348633 0.4940924644470215 255 255 255
18.29743194580078 -5.961753845214844 -1.6502254009246826 255 255 255
18.802698135375977 0.8714867830276489 -0.6570166349411011 255 255 255
23.108028411865234 0.3753702938556671 -0.017166901379823685 255 255 255
9.591182708740234 1.7243484258651733 -0.3429112136363983 255 255 255
13.082137107849121 0.40961331129074097 -1.015584945678711 255 255 255
9.207928657531738 3.733325719833374 -1.032278060913086 255 255 255
21.904903411865234 -2.4692800045013428 -1.439862608909607 255 255 255
7.048797130584717 4.777585029602051 0.37759900093078613 255 255 255
12.125616073608398 -7.710709571838379 -0.7055529356002808 255 255 255
5.240122318267822 -2.820040464401245 -1.2444719076156616 255 255 255
33.87366485595703 -13.909051895141602 -0.7154086828231812 255 255 255
30.600278854370117 -2.349797487258911 0.16726882755756378 255 255 255
18.603940963745117 5.954911708831787 -0.156457781791687 255 255 255
7.715234756469727 -1.2571223974227905 -1.7235937118530273 255 255 255
16.44740867614746 10.985326766967773 -0.02660869061946869 255 255 255
5.542383193969727 -3.6342365741729736 -0.751812219619751 255 255 255
6.129944801330566 -2.8036465644836426 -1.397247314453125 255 255 255
20.413684844970703 5.3127546310424805 0.2809441387653351 255 255 255
19.354177474975586 -7.652143955230713 -0.7612389922142029 255 255 255
43.9661865234375 -2.756319999694824 0.4801256060600281 255 255 255
12.847232818603516 0.1626521497964859 -1.451241374015808 255 255 255
19.311738967895508 -7.453052520751953 -1.2365176677703857 255 255 255
6.699944496154785 2.0363986492156982 -0.7565370798110962 255 255 255
6.542010307312012 1.370723843574524 -1.5674660205841064 255 255 255
9.660606384277344 -7.349669456481934 0.21539366245269775 255 255 255
6.7793660163879395 1.9539567232131958 -0.6870166659355164 255 255 255
22.746030807495117 -0.36809518933296204 0.7619686722755432 255 255 255
3.275498151779175 2.241405487060547 -0.5916504263877869 255 255 255
18.421695709228516 5.393787860870361 -0.7983865737915039 255 255 255
9.981789588928223 -2.769069194793701 -1.804168939590454 255 255 255
18.47234535217285 1.0224310159683228 -0.46216630935668945 255 255 255
18.867067337036133 -2.7141849994659424 -1.545302152633667 255 255 255
10.568272590637207 -1.7346254587173462 -1.6760209798812866 255 255 255
8.411203384399414 -0.7428137063980103 -1.6819809675216675 255 255 255
5.283355236053467 -2.7498533725738525 -0.8275649547576904 255 255 255
6.4055399894714355 -0.7712006568908691 -1.6563104391098022 255 255 255
5.200821399688721 1.8245534896850586 -1.050951600074768 255 255 255
5.095263957977295 -3.611440658569336 -1.2218308448791504 255 255 255
19.69061851501465 -7.602908611297607 -0.5026876330375671 255 255 255
17.889633178710938 3.736497402191162 0.3836870789527893 255 255 255
12.416426658630371 7.6478495597839355 -0.6850468516349792 255 255 255
6.887202739715576 1.976958155632019 -0.658916175365448 255 255 255
13.254666328430176 0.6246005296707153 -0.3383326828479767 255 255 255
11.174579620361328 -7.200217247009277 0.4155700206756592 255 255 255
40.734642028808594 -15.967118263244629 0.3568553626537323 255 255 255
3.9354186058044434 2.1900994777679443 -0.3475252687931061 255 255 255
8.79187297821045 -1.5118474960327148 -1.667594075202942 255 255 255
21.46063232421875 1.323421597480774 0.016488831490278244 255 255 255
13.91170597076416 -8.081244468688965 0.13769473135471344 255 255 255
3.687185525894165 2.337878942489624 -0.15581856667995453 255 255 255
8.371391296386719 -1.7513887882232666 -1.7967947721481323 255 255 255
7.6101861000061035 0.42853546142578125 -1.5849287509918213 255 255 255
19.263235092163086 -7.447451114654541 -1.2442412376403809 255 255 255
10.616963386535645 6.1050238609313965 -1.0823904275894165 255 255 255
12.651021003723145 6.076030254364014 -0.7621007561683655 255 255 255
15.544116020202637 -4.635553359985352 -1.766625165939331 255 255 255
21.413043975830078 0.07261643558740616 0.8823693990707397 255 255 255
6.739058017730713 4.683912754058838 0.26449036598205566 255 255 255
14.735443115234375 -8.546148300170898 -0.257072389125824 255 255 255
6.843230247497559 2.0484678745269775 -1.65532386302948 255 255 255
9.254328727722168 0.4737248122692108 -1.1674312353134155 255 255 255
17.76917839050293 -3.7886173725128174 -1.601324439048767 255 255 255
3.562274217605591 2.1620635986328125 -0.6832132935523987 255 255 255
9.312769889831543 -7.016826152801514 -0.612293004989624 255 255 255
20.388912200927734 -5.464247226715088 -1.5539535284042358 255 255 255
2.9949212074279785 2.46138072013855 -0.29381486773490906 255 255 255
18.654733657836914 -9.493456840515137 -0.9527826905250549 255 255 255
5.157261371612549 -3.3680801391601562 -0.828039288520813 255 255 255
19.01102066040039 2.0482988357543945 0.6353360414505005 255 255 255
16.26658058166504 -4.192149639129639 -1.6806280612945557 255 255 255
6.192538738250732 4.926546096801758 0.4306480288505554 255 255 255
45.98609161376953 -11.15475845336914 -1.3480409383773804 255 255 255
12.441228866577148 -1.958035945892334 -1.6511236429214478 255 255 255
4.039139270782471 2.1151363849639893 -0.3914773762226105 255 255 255
6.880433559417725 1.3978605270385742 -0.6994199156761169 255 255 255
3.312650203704834 2.2906196117401123 -0.5158588290214539 255 255 255
27.432029724121094 -7.037108898162842 -1.5327513217926025 255 255 255
15.64150333404541 8.22232437133789 0.17065975069999695 255 255 255
12.879914283752441 -4.917688846588135 -1.6812260150909424 255 255 255
17.44491195678711 3.6621479988098145 0.08477995544672012 255 255 255
6.692623615264893 4.864116191864014 -0.05846535414457321 255 255 255
6.492539405822754 2.1940133571624756 -1.3598785400390625 255 255 255
5.191132545471191 -3.7957255840301514 -0.673273503780365 255 255 255
19.38619613647461 -9.476405143737793 -0.7478718161582947 255 255 255
39.89415740966797 -16.448776245117188 -0.1417945772409439 255 255 255
12.955013275146484 5.837401866912842 -0.9135509729385376 255 255 255
17.1397705078125 3.3975229263305664 0.703719437122345 255 255 255
6.445309638977051 1.4235286712646484 -1.0696243047714233 255 255 255
6.616977214813232 4.5691022872924805 0.37239816784858704 255 255 255
19.571319580078125 5.5456862449646 0.7147007584571838 255 255 255
7.3321075439453125 -2.7604026794433594 -1.8182483911514282 255 255 255
6.705256462097168 1.594895839691162 -1.5430065393447876 255 255 255
23.143014907836914 -0.932501494884491 1.030279517173767 255 255 255
25.064590454101562 -11.453581809997559 -0.8102956414222717 255 255 255
5.457178115844727 -3.1138756275177 -1.212760090827942 255 255 255
7.678780555725098 -0.031075550243258476 -1.6478575468063354 255 255 255
7.466507911682129 -1.6924793720245361 -1.6998261213302612 255 255 255
6.6360182762146 4.716707229614258 0.10016331821680069 255 255 255
9.925491333007812 4.3492231369018555 0.05552006512880325 255 255 255
8.000082969665527 -2.997077703475952 -1.7433139085769653 255 255 255
11.671058654785156 -7.274463176727295 0.07022721320390701 255 255 255
13.262308120727539 -0.8076234459877014 -1.0071572065353394 255 255 255
17.41404151916504 -9.145625114440918 -1.0101237297058105 255 255 255
15.601680755615234 -1.521144151687622 -0.9003080129623413 255 255 255
17.91473960876465 3.3727197647094727 0.0490238256752491 255 255 255
5.28626823425293 -2.921649932861328 -1.1075413227081299 255 255 255
9.837674140930176 -6.964123725891113 -0.03628070279955864 255 255 255
7.778622627258301 0.7536898255348206 -1.6391795873641968 255 255 255
21.24256134033203 -10.395639419555664 -0.4144909679889679 255 255 255
3.7955820560455322 2.1131818294525146 -0.7942109704017639 255 255 255
26.98280906677246 -5.511269569396973 -1.4694510698318481 255 255 255
5.1699066162109375 -3.122431993484497 -1.3290808200836182 255 255 255
17.50763702392578 2.7936599254608154 0.17139588296413422 255 255 255
16.22726821899414 -8.78504467010498 -0.15383808314800262 255 255 255
5.680575847625732 -3.2189395427703857 -0.7903177738189697 255 255 255
10.6170654296875 -7.502447128295898 -0.49247506260871887 255 255 255
9.142483711242676 0.5834147930145264 -1.5411121845245361 255 255 255
18.293230056762695 2.61234188079834 0.15481354296207428 255 255 255
9.054574966430664 4.855144500732422 0.48045819997787476 255 255 255
10.011617660522461 4.12313175201416 0.11647866666316986 255 255 255
21.812763214111328 -10.555760383605957 -0.3936731219291687 255 255 255
5.42183780670166 -2.6262991428375244 -1.2888630628585815 255 255 255
16.24431800842285 -6.857566833496094 -1.7736406326293945 255 255 255
15.121927261352539 3.7614200115203857 -0.187562495470047 255 255 255
11.021320343017578 -1.129528284072876 -1.6020179986953735 255 255 255
7.071381092071533 2.0600788593292236 -1.5683077573776245 255 255 255
5.246491432189941 -3.0247786045074463 -1.337630033493042 255 255 255
7.098971843719482 1.9929122924804688 -0.6454466581344604 255 255 255
26.991247177124023 -5.207613945007324 -1.4704182147979736 255 255 255
4.689976692199707 1.8874382972717285 -0.8890107870101929 255 255 255
37.332218170166016 -11.103801727294922 -1.4202038049697876 255 255 255
10.388497352600098 -7.5910234451293945 -0.12480846792459488 255 255 255
17.212926864624023 3.3561689853668213 0.1653759479522705 255 255 255
9.127961158752441 -2.8470206260681152 -1.8165620565414429 255 255 255
13.62653923034668 -0.5626277923583984 -0.5121660232543945 255 255 255
30.766128540039062 -12.910423278808594 -0.8547855615615845 255 255 255
13.650376319885254 8.164016723632812 -0.3863857686519623 255 255 255
9.83045768737793 -0.11562209576368332 -1.5994009971618652 255 255 255
17.752532958984375 -2.5782346725463867 -1.6214599609375 255 255 255
6.702528953552246 1.500715732574463 -0.6996279358863831 255 255 255
8.11911392211914 3.9585015773773193 -1.0106287002563477 255 255 255
21.631343841552734 1.5282384157180786 0.3977416455745697 255 255 255
6.409696102142334 1.6712665557861328 -1.3631768226623535 255 255 255
13.23690414428711 -0.9439634680747986 -0.9536635875701904 255 255 255
6.615661144256592 4.571065902709961 0.44868898391723633 255 255 255
5.420534133911133 -2.907175302505493 -1.0791138410568237 255 255 255
5.681510925292969 -2.730898141860962 -1.172606348991394 255 255 255
23.877593994140625 -3.1564431190490723 -1.519041895866394 255 255 255
17.131893157958984 3.405850887298584 0.49771881103515625 255 255 255
21.12785530090332 -10.763602256774902 -0.30146074295043945 255 255 255
20.832901000976562 -6.746326446533203 -1.7220826148986816 255 255 255
6.405246734619141 1.2811939716339111 -1.0441991090774536 255 255 255
9.692172050476074 -0.6643595099449158 -1.6458823680877686 255 255 255
6.101269721984863 -3.8707549571990967 -0.7678052186965942 255 255 255
21.04608154296875 0.6649269461631775 -0.12972724437713623 255 255 255
19.783143997192383 -9.576781272888184 -1.4410725831985474 255 255 255
15.464786529541016 -4.0478835105896 -1.6986719369888306 255 255 255
35.03520202636719 -6.908119201660156 -1.2953330278396606 255 255 255
24.55152702331543 -11.192901611328125 -0.9865061640739441 255 255 255
6.466241836547852 5.078871726989746 -0.0915384367108345 255 255 255
8.37518310546875 0.6819278001785278 -1.3511970043182373 255 255 255
8.661779403686523 -0.0626608356833458 -1.6533864736557007 255 255 255
7.368863105773926 6.157582759857178 0.5652216076850891 255 255 255
13.064290046691895 -0.657446026802063 -0.6793659329414368 255 255 255
17.89650535583496 2.3543589115142822 0.29275888204574585 255 255 255
23.82594871520996 -10.928625106811523 -0.8196788430213928 255 255 255
8.662672996520996 3.9631869792938232 -0.37279433012008667 255 255 255
7.562239646911621 -3.1696975231170654 -1.8007279634475708 255 255 255
8.475774765014648 -6.348496913909912 -1.6809884309768677 255 255 255
73.82990264892578 -11.62296199798584 2.29988169670105 255 255 255
8.396839141845703 0.8057169318199158 -0.30355924367904663 255 255 255
7.138329029083252 -0.5189930200576782 -1.691909670829773 255 255 255
7.47580099105835 0.9298613667488098 -0.9000435471534729 255 255 255
12.24898624420166 -0.1902976930141449 -1.6017520427703857 255 255 255
16.899946212768555 -9.001263618469238 -0.8793147206306458 255 255 255
27.22759437561035 -6.6440629959106445 -1.5133944749832153 255 255 255
23.81391716003418 -6.868846893310547 -1.7439769506454468 255 255 255
7.100232124328613 4.672248840332031 0.22102248668670654 255 255 255
5.806466579437256 5.067018032073975 -0.19345758855342865 255 255 255
5.36898946762085 -2.8580634593963623 -1.3115813732147217 255 255 255
13.464929580688477 8.819512367248535 -0.3804018199443817 255 255 255
33.893558502197266 -3.410348415374756 -0.5178965330123901 255 255 255
12.648979187011719 6.951236724853516 -0.770828902721405 255 255 255
10.043709754943848 -7.080443382263184 -0.12349218875169754 255 255 255
6.451402187347412 2.0886120796203613 -1.4177649021148682 255 255 255
25.073015213012695 -11.380229949951172 0.06504140794277191 255 255 255
34.29668045043945 -3.8354063034057617 -0.8811850547790527 255 255 255
14.196135520935059 0.09165345877408981 -1.4528628587722778 255 255 255
13.78657054901123 -0.4692732095718384 -0.20385581254959106 255 255 255
13.542641639709473 0.232157900929451 -1.18007230758667 255 255 255
40.61209487915039 -16.126720428466797 0.23839689791202545 255 255 255
11.360795974731445 -7.589432716369629 -0.6016432046890259 255 255 255
6.822207927703857 0.39128679037094116 -1.6744341850280762 255 255 255
9.405012130737305 -7.116847991943359 -0.39417558908462524 255 255 255
6.9342570304870605 1.160568118095398 -1.1651569604873657 255 255 255
17.105520248413086 -7.220051288604736 -1.7141462564468384 255 255 255
5.227841854095459 -3.1768932342529297 -0.8560039401054382 255 255 255
6.293489933013916 4.927611827850342 -0.03184574097394943 255 255 255
7.714572906494141 -0.7872920036315918 -1.6641019582748413 255 255 255
10.308952331542969 4.094444274902344 0.12462718784809113 255 255 255
6.4791669845581055 1.569139838218689 -1.3409456014633179 255 255 255
21.01310920715332 -7.0501627922058105 -1.6373838186264038 255 255 255
3.4654300212860107 2.5159473419189453 -0.12255594879388809 255 255 255
6.295891761779785 1.916717290878296 -1.044862151145935 255 255 255
7.507317543029785 -1.2747712135314941 -1.6941825151443481 255 255 255
23.23310661315918 -9.534839630126953 0.7789904475212097 255 255 255
7.798897743225098 -3.453603744506836 -1.7870535850524902 255 255 255
46.458351135253906 -12.37785530090332 -1.3491767644882202 255 255 255
17.984281539916992 -4.382290363311768 -1.5990023612976074 255 255 255
8.816136360168457 1.5469270944595337 -0.5741255283355713 255 255 255
7.453121662139893 -0.31261733174324036 -1.6988542079925537 255 255 255
3.3437917232513428 2.444425344467163 -0.3945818841457367 255 255 255
6.099735260009766 5.176799297332764 0.14837217330932617 255 255 255
14.135534286499023 -7.2264084815979 0.5508595108985901 255 255 255
12.857953071594238 -7.307979583740234 0.5153768658638 255 255 255
7.354099273681641 1.0141521692276 -0.6336960792541504 255 255 255
6.42343807220459 1.7086085081100464 -1.3855218887329102 255 255 255
6.325006484985352 2.0364489555358887 -1.211260199546814 255 255 255
9.050676345825195 -6.798489570617676 -1.0491845607757568 255 255 255
23.513946533203125 -6.281396865844727 -1.6944996118545532 255 255 255
4.694450378417969 1.7237944602966309 -0.9232811331748962 255 255 255
5.31776762008667 -2.8840126991271973 -0.9332117438316345 255 255 255
13.757996559143066 -8.229846000671387 -0.6401515603065491 255 255 255
6.727853775024414 -0.8938595652580261 -1.6186493635177612 255 255 255
8.830709457397461 -6.821612358093262 -0.7666568160057068 255 255 255
12.084996223449707 8.517264366149902 -0.6934440732002258 255 255 255
18.44767951965332 2.9491567611694336 0.6596326231956482 255 255 255
13.990848541259766 -1.469879388809204 -1.5699331760406494 255 255 255
10.136510848999023 5.940978050231934 -0.8099200129508972 255 255 255
11.023619651794434 -4.182258129119873 -1.7414367198944092 255 255 255
7.334360599517822 -3.0343806743621826 -0.8391333222389221 255 255 255
7.5586748123168945 -3.253739356994629 -1.529906153678894 255 255 255
18.304649353027344 -9.627835273742676 -0.739109456539154 255 255 255
9.448399543762207 1.631653904914856 -0.31221649050712585 255 255 255
54.84414291381836 -16.22001075744629 -1.2935916185379028 255 255 255
10.468317985534668 -3.089289665222168 -1.685888648033142 255 255 255
5.309970855712891 -3.039328098297119 -0.8798241019248962 255 255 255
20.592863082885742 -10.450325965881348 0.3334767520427704 255 255 255
12.631847381591797 -3.2164671421051025 -1.751539707183838 255 255 255
5.371029853820801 -2.708683490753174 -0.9042589664459229 255 255 255
8.71146011352539 0.7018300890922546 -1.2702662944793701 255 255 255
6.657007217407227 1.6203062534332275 -0.6664462685585022 255 255 255
6.508084297180176 1.988695740699768 -1.3033567667007446 255 255 255
6.039322376251221 -4.128599166870117 -0.8347233533859253 255 255 255
12.1696195602417 -0.07896681874990463 -1.6168466806411743 255 255 255
31.960512161254883 -6.256377220153809 -1.4589905738830566 255 255 255
20.611459732055664 -9.944819450378418 -1.0509605407714844 255 255 255
3.2642154693603516 2.292712450027466 -0.7620571255683899 255 255 255
6.492123126983643 5.212236404418945 0.53741455078125 255 255 255
6.507650852203369 2.132894277572632 -1.5696195363998413 255 255 255
13.093527793884277 0.10963410884141922 -0.7603451609611511 255 255 255
3.281426429748535 2.219093084335327 -0.5248898863792419 255 255 255
7.682765960693359 0.9431599974632263 -1.2131943702697754 255 255 255
8.559210777282715 -2.300335168838501 -1.7361845970153809 255 255 255
4.323462963104248 1.7950503826141357 -0.6419066190719604 255 255 255
6.581164360046387 1.9813865423202515 -0.6500079035758972 255 255 255
10.5504789352417 -3.343693256378174 -1.70685875415802 255 255 255
8.380437850952148 0.8665695190429688 -1.6044069528579712 255 255 255
10.000656127929688 -3.206183671951294 -1.735958218574524 255 255 255
8.41851806640625 1.3236156702041626 -0.08962364494800568 255 255 255
9.875200271606445 -0.5600695013999939 -1.645835041999817 255 255 255
10.289095878601074 0.36396530270576477 -1.5392584800720215 255 255 255
6.958521842956543 1.0529959201812744 -0.7209217548370361 255 255 255
12.23940372467041 -7.271618843078613 0.3638250231742859 255 255 255
8.049142837524414 3.9163575172424316 -0.782823383808136 255 255 255
18.37116241455078 5.969790935516357 0.8283174633979797 255 255 255
7.513515949249268 0.388678640127182 -1.7285572290420532 255 255 255
14.238255500793457 -5.449045658111572 -1.7799968719482422 255 255 255
6.448147296905518 2.0464141368865967 -1.1065791845321655 255 255 255
6.295449733734131 4.7914323806762695 0.10180733352899551 255 255 255
3.2117319107055664 2.6130337715148926 -0.17975890636444092 255 255 255
4.447232723236084 1.9800747632980347 -0.82427579164505 255 255 255
5.07240629196167 -3.723867177963257 -1.3445885181427002 255 255 255
7.939857482910156 0.38071873784065247 -1.5905791521072388 255 255 255
13.576444625854492 -2.3805758953094482 -1.6224913597106934 255 255 255
19.256359100341797 -7.983561038970947 -0.7103076577186584 255 255 255
19.49942970275879 -9.68379020690918 -0.02962334267795086 255 255 255
9.386025428771973 3.617447853088379 -0.9209972023963928 255 255 255
6.404869079589844 2.2357563972473145 -1.188621163368225 255 255 255
19.53432846069336 5.674927711486816 0.9018269777297974 255 255 255
9.634832382202148 -1.5568536520004272 -1.6744087934494019 255 255 255
6.297417163848877 1.6918079853057861 -1.3717937469482422 255 255 255
8.681767463684082 -1.8842040300369263 -1.7071912288665771 255 255 255
9.79386043548584 6.049921989440918 0.08693324774503708 255 255 255
6.4044623374938965 -0.7698543071746826 -1.651437520980835 255 255 255
3.1162631511688232 2.3392953872680664 -0.7673794031143188 255 255 255
4.347099781036377 1.9216547012329102 -0.8196072578430176 255 255 255
13.181629180908203 -0.6753343939781189 -0.4807036519050598 255 255 255
9.56134033203125 0.4956546425819397 -1.1100646257400513 255 255 255
9.151460647583008 -1.1350021362304688 -1.7656285762786865 255 255 255
8.2359037399292 4.078098773956299 -0.8503366112709045 255 255 255
20.208934783935547 -4.357107162475586 -1.5973106622695923 255 255 255
18.490779876708984 2.113797426223755 -0.07386269420385361 255 255 255
3.004586935043335 2.3705012798309326 -0.7417380809783936 255 255 255
8.546358108520508 -3.3044075965881348 -1.7102550268173218 255 255 255
13.810836791992188 6.868298530578613 -0.4428139328956604 255 255 255
23.06224822998047 0.6863643527030945 -0.35577845573425293 255 255 255
12.522778511047363 -1.630009651184082 -1.64530348777771 255 255 255
29.939363479614258 -4.312114238739014 -1.359850525856018 255 255 255
4.478493690490723 1.8697646856307983 -1.0314688682556152 255 255 255
6.58406400680542 4.658295154571533 0.18392369151115417 255 255 255
6.44251823425293 -1.4660173654556274 -1.7160872220993042 255 255 255
7.633243083953857 6.434122085571289 -0.053163301199674606 255 255 255
10.619698524475098 4.1015849113464355 -0.11992758512496948 255 255 255
7.151753902435303 6.249972343444824 0.6001296639442444 255 255 255
4.265388488769531 2.00156569480896 -0.9213287830352783 255 255 255
12.107820510864258 -7.674741268157959 -0.2977146506309509 255 255 255
9.32199478149414 4.271106243133545 0.19552165269851685 255 255 255
11.73487663269043 -7.205721378326416 0.605304479598999 255 255 255
6.416332244873047 1.3573901653289795 -1.5671775341033936 255 255 255
9.380359649658203 1.3898842334747314 -0.597224235534668 255 255 255
22.339075088500977 -10.653314590454102 -0.4990621507167816 255 255 255
24.079612731933594 -7.386072158813477 -1.658300757408142 255 255 255
41.028656005859375 -16.01698112487793 0.21788449585437775 255 255 255
16.43522834777832 5.424370288848877 -0.7293649911880493 255 255 255
4.135052680969238 2.0056803226470947 -0.6353892683982849 255 255 255
7.257206916809082 -3.0332112312316895 -0.8851644992828369 255 255 255
12.809873580932617 4.948292255401611 -0.24755658209323883 255 255 255
6.299243450164795 4.906576633453369 -0.16493424773216248 255 255 255
17.023967742919922 3.4772515296936035 -0.16920670866966248 255 255 255
19.371868133544922 5.634429931640625 0.30976712703704834 255 255 255
29.01553726196289 -12.326027870178223 -1.0711076259613037 255 255 255
16.020416259765625 4.908972263336182 -0.8393123149871826 255 255 255
22.694053649902344 -10.398890495300293 0.13182197511196136 255 255 255
55.12211227416992 -16.567428588867188 -1.2571707963943481 255 255 255
14.1415433883667 -6.043658256530762 -1.701539158821106 255 255 255
9.05516242980957 0.6652040481567383 -0.24391083419322968 255 255 255
12.87158489227295 -3.345834493637085 -1.7349367141723633 255 255 255
6.169728755950928 4.846802711486816 0.030551673844456673 255 255 255
17.841264724731445 3.486837863922119 -0.3311429023742676 255 255 255
19.70018196105957 5.576127529144287 0.4870382249355316 255 255 255
30.453657150268555 -12.876301765441895 -0.6223487854003906 255 255 255
6.746043682098389 2.114992380142212 -1.647143840789795 255 255 255
6.272679328918457 5.011092662811279 -0.13894109427928925 255 255 255
19.985130310058594 -3.369375228881836 -1.6054048538208008 255 255 255
18.731327056884766 2.0859904289245605 0.4395391643047333 255 255 255
3.027308225631714 2.4584853649139404 -0.17585071921348572 255 255 255
21.1715145111084 0.7440438866615295 0.6641169190406799 255 255 255
40.05058288574219 -16.255760192871094 -0.12148048728704453 255 255 255
10.57088565826416 -3.675733804702759 -1.702045202255249 255 255 255
6.748685359954834 -2.4647326469421387 -1.7020968198776245 255 255 255
6.906186103820801 1.0841050148010254 -0.812855064868927 255 255 255
8.279448509216309 -0.06969321519136429 -1.6415789127349854 255 255 255
19.170438766479492 -7.853674411773682 -1.2686010599136353 255 255 255
7.7344465255737305 -0.10366379469633102 -1.690515160560608 255 255 255
6.566396713256836 2.2723071575164795 -0.7295722365379333 255 255 255
9.097519874572754 -0.1758154183626175 -1.6832835674285889 255 255 255
9.847729682922363 -0.18545936048030853 -1.660466194152832 255 255 255
8.846467971801758 0.7298693656921387 -0.3158000707626343 255 255 255
9.034287452697754 0.6808305978775024 -1.6051051616668701 255 255 255
6.597738265991211 -1.854994297027588 -1.6547436714172363 255 255 255
3.5709517002105713 2.562002182006836 -0.21985049545764923 255 255 255
6.956661701202393 -0.6315720081329346 -1.5880814790725708 255 255 255
10.083972930908203 5.032219886779785 0.5703117847442627 255 255 255
13.358736038208008 0.19811829924583435 -0.5657223463058472 255 255 255
8.066740989685059 -1.9286580085754395 -1.7146978378295898 255 255 255
5.162736892700195 -3.6744580268859863 -0.9899282455444336 255 255 255
3.847907304763794 2.0677242279052734 -0.9996590614318848 255 255 255
12.908439636230469 -3.0915496349334717 -1.63528573513031 255 255 255
19.514774322509766 -7.291557312011719 -1.03887140750885 255 255 255
3.4992830753326416 2.202338457107544 -0.8297520279884338 255 255 255
6.175225734710693 4.994483947753906 0.39886075258255005 255 255 255
6.182699203491211 5.056022644042969 0.1895243376493454 255 255 255
3.436671495437622 2.37811541557312 -0.3998281955718994 255 255 255
9.578357696533203 3.623499870300293 -1.0527187585830688 255 255 255
62.695533752441406 -21.79766845703125 0.3396871089935303 255 255 255
6.6283979415893555 4.7049946784973145 0.1320081353187561 255 255 255
6.626425743103027 -1.0783742666244507 -1.7358956336975098 255 255 255
14.644224166870117 -3.0128045082092285 -1.6308153867721558 255 255 255
15.585270881652832 -4.8914875984191895 -1.6891703605651855 255 255 255
9.619649887084961 -7.307497978210449 0.2049180120229721 255 255 255
3.320140838623047 2.311361312866211 -0.7153279185295105 255 255 255
5.406336307525635 -2.824794054031372 -1.0320571660995483 255 255 255
6.3742523193359375 4.894932270050049 0.0032773164566606283 255 255 255
6.617608070373535 1.2638970613479614 -0.8622304797172546 255 255 255
16.224895477294922 10.173019409179688 0.5080588459968567 255 255 255
8.221179962158203 -3.231905937194824 -1.810258150100708 255 255 255
62.17261505126953 -8.106354713439941 1.117240071296692 255 255 255
17.932552337646484 5.6286516189575195 -0.6610994935035706 255 255 255
12.734872817993164 6.718878269195557 -0.7401039004325867 255 255 255
14.624053955078125 -2.655789613723755 -1.619632363319397 255 255 255
9.041844367980957 3.7774078845977783 0.549586296081543 255 255 255
6.296825408935547 1.7043416500091553 -1.3083012104034424 255 255 255
12.167365074157715 0.14782235026359558 -1.5859967470169067 255 255 255
15.644448280334473 -5.78837251663208 -1.6960971355438232 255 255 255
21.72229766845703 -0.4841093122959137 0.8989981412887573 255 255 255
11.404372215270996 -8.02574634552002 0.2909868359565735 255 255 255
6.378169536590576 1.7316404581069946 -0.8998796343803406 255 255 255
5.417354583740234 -2.693603277206421 -1.080178141593933 255 255 255
6.574988842010498 4.622915744781494 0.228632852435112 255 255 255
14.611621856689453 -2.2971723079681396 -1.6547831296920776 255 255 255
6.521553993225098 1.5868585109710693 -1.0000734329223633 255 255 255
11.787208557128906 7.537724494934082 -0.7960591316223145 255 255 255
9.17679214477539 3.799604654312134 0.5704771876335144 255 255 255
56.527587890625 -20.45758628845215 -0.6894564628601074 255 255 255
12.701653480529785 -7.129830837249756 0.5885578989982605 255 255 255
6.586984157562256 4.766918182373047 -0.2843528389930725 255 255 255
24.86887550354004 -10.270648002624512 0.4157939553260803 255 255 255
19.15727424621582 -7.878113746643066 -1.1856393814086914 255 255 255
12.272193908691406 -0.33846530318260193 -1.5770519971847534 255 255 255
21.374223709106445 1.1650768518447876 0.7951885461807251 255 255 255
11.485342979431152 -7.53701114654541 0.5133000612258911 255 255 255
3.493154525756836 2.391526699066162 -0.12916859984397888 255 255 255
6.736186981201172 1.5322705507278442 -0.6791698932647705 255 255 255
3.1974503993988037 2.3663387298583984 -0.1869535893201828 255 255 255
76.19889068603516 -12.684867858886719 1.3641107082366943 255 255 255
4.382369041442871 1.9583759307861328 -0.8166062831878662 255 255 255
3.5028882026672363 2.1514456272125244 -0.8703235387802124 255 255 255
46.35019302368164 -11.851155281066895 -1.2897497415542603 255 255 255
23.412145614624023 -5.633546829223633 -1.6010116338729858 255 255 255
16.401636123657227 5.709965705871582 -0.9427462816238403 255 255 255
40.753639221191406 -11.057962417602539 -1.4112422466278076 255 255 255
6.255696773529053 1.8876615762710571 -1.150672435760498 255 255 255
13.703428268432617 0.3293263018131256 -0.239542618393898 255 255 255
6.806338787078857 1.6411783695220947 -0.6564034223556519 255 255 255
3.9241955280303955 2.1902410984039307 -0.3128107190132141 255 255 255
6.707200050354004 2.504399061203003 -0.9025174379348755 255 255 255
7.189351558685303 1.011679768562317 -0.8091428875923157 255 255 255
40.65902328491211 -5.634214401245117 -0.36342865228652954 255 255 255
5.075380802154541 -3.845569372177124 -1.2057682275772095 255 255 255
8.055840492248535 4.041200160980225 -0.8824506998062134 255 255 255
62.58589553833008 -22.02170753479004 0.3737563490867615 255 255 255
17.969009399414062 2.657867908477783 -0.2530514597892761 255 255 255
17.31154441833496 3.1911535263061523 0.6543028950691223 255 255 255
13.374917030334473 4.771724700927734 -0.4254463016986847 255 255 255
17.664602279663086 6.101998329162598 0.6405265927314758 255 255 255
6.5244855880737305 2.066399335861206 -0.8490495085716248 255 255 255
8.505608558654785 2.021315813064575 -0.5565776228904724 255 255 255
26.709787368774414 -11.702474594116211 -1.2976644039154053 255 255 255
16.631261825561523 1.6265028715133667 -0.21895930171012878 255 255 255
8.300427436828613 -0.10155079513788223 -1.6715500354766846 255 255 255
8.346053123474121 3.9458954334259033 -0.9970471858978271 255 255 255
8.474918365478516 -1.2334973812103271 -1.762958288192749 255 255 255
14.182509422302246 8.639825820922852 -0.21117699146270752 255 255 255
9.771588325500488 5.293939113616943 0.39348897337913513 255 255 255
9.122345924377441 3.7015535831451416 -1.228904128074646 255 255 255
18.974428176879883 -3.7503771781921387 -1.653720498085022 255 255 255
15.05289363861084 4.231265544891357 0.6459186673164368 255 255 255
13.83381175994873 -0.28356537222862244 -1.563164234161377 255 255 255
6.352485656738281 4.947772026062012 -0.1652189940214157 255 255 255
14.859151840209961 -1.2818526029586792 -1.2779346704483032 255 255 255
6.612035751342773 0.7146066427230835 -1.6091581583023071 255 255 255
9.928658485412598 5.465544700622559 0.08624987304210663 255 255 255
68.7762451171875 -10.003509521484375 1.8524301052093506 255 255 255
7.185251712799072 -0.4434533417224884 -1.622785210609436 255 255 255
7.098825931549072 -1.7315133810043335 -1.7641600370407104 255 255 255
13.40569019317627 6.955931663513184 -0.4306659996509552 255 255 255
8.614509582519531 1.5550193786621094 -0.5427868962287903 255 255 255
7.093263626098633 1.950995683670044 -0.5437780618667603 255 255 255
6.785485744476318 1.309338092803955 -1.5857727527618408 255 255 255
7.582960605621338 -1.0485752820968628 -1.661409854888916 255 255 255
17.25712013244629 6.255391597747803 0.3010093569755554 255 255 255
15.380927085876465 -3.6813759803771973 -1.6416740417480469 255 255 255
8.669210433959961 -0.8001725077629089 -1.740770936012268 255 255 255
54.982276916503906 -3.8027055263519287 0.41466331481933594 255 255 255
7.723875522613525 3.9370474815368652 -0.7835887670516968 255 255 255
37.48027038574219 -4.975217342376709 -0.006290718447417021 255 255 255
17.896249771118164 -3.87209415435791 -1.5171239376068115 255 255 255
5.178635120391846 -3.580360174179077 -1.3411918878555298 255 255 255
3.6234028339385986 2.0610718727111816 -0.6689719557762146 255 255 255
10.834668159484863 -0.2409057319164276 -1.5847816467285156 255 255 255
12.5833740234375 -4.152478218078613 -1.8083609342575073 255 255 255
14.523551940917969 -1.6429164409637451 -1.5503852367401123 255 255 255
4.106009483337402 2.2487692832946777 -0.3201581835746765 255 255 255
16.98299789428711 3.326711893081665 0.2618778645992279 255 255 255
6.0390305519104 5.009154796600342 0.09703906625509262 255 255 255
8.918171882629395 0.44059863686561584 -1.0011428594589233 255 255 255
19.902379989624023 5.465930938720703 0.032929711043834686 255 255 255
5.195759296417236 -3.5667192935943604 -0.9546814560890198 255 255 255
18.552978515625 5.980463027954102 -0.29019299149513245 255 255 255
