ply
format ascii 1.0
element vertex 693
property float x
property float y
property float z
property uchar red
property uchar green
property uchar blue
end_header
9.637860298156738 -1.6778513193130493 -1.7242238521575928 255 255 255
9.60387897491455 -1.6214773654937744 -1.6660150289535522 255 255 255
9.56022834777832 -1.6402007341384888 -1.587925672531128 255 255 255
9.602804183959961 -1.5668238401412964 -1.6703548431396484 255 255 255
9.578662872314453 -1.4672284126281738 -1.6656945943832397 255 255 255
9.667472839355469 -1.4909818172454834 -1.619852066040039 255 255 255
9.643669128417969 -1.520217776298523 -1.672268033027649 255 255 255
9.654776573181152 -1.571162223815918 -1.7226864099502563 255 255 255
9.543614387512207 -1.4660011529922485 -1.6950167417526245 255 255 255
9.687520980834961 -1.4010179042816162 -1.667110800743103 255 255 255
9.618721008300781 -1.3839137554168701 -1.6514060497283936 255 255 255
9.500982284545898 -1.3107095956802368 -1.6432548761367798 255 255 255
9.715392112731934 -1.3404988050460815 -1.5670909881591797 255 255 255
9.595539093017578 -1.2308775186538696 -1.6653200387954712 255 255 255
9.561182975769043 -1.1216241121292114 -1.672361135482788 255 255 255
9.631340980529785 -1.2073982954025269 -1.6300724744796753 255 255 255
9.566089630126953 -1.255839467048645 -1.6133251190185547 255 255 255
9.59586238861084 -1.1201715469360352 -1.6593146324157715 255 255 255
9.50963020324707 -1.0863913297653198 -1.6113882064819336 255 255 255
9.532631874084473 -1.1216768026351929 -1.5851337909698486 255 255 255
9.606539726257324 -1.0505741834640503 -1.6564470529556274 255 255 255
9.60604190826416 -1.0910751819610596 -1.6596174240112305 255 255 255
9.580946922302246 -1.067887783050537 -1.6007719039916992 255 255 255
9.649070739746094 -0.8851696252822876 -1.7311033010482788 255 255 255
9.625889778137207 -0.9493822455406189 -1.6547987461090088 255 255 255
9.537252426147461 -0.9005135297775269 -1.6683026552200317 255 255 255
9.57540512084961 -0.8376631736755371 -1.679335594177246 255 255 255
9.575270652770996 -0.8333929777145386 -1.7303564548492432 255 255 255
9.583393096923828 -0.8767446279525757 -1.7189998626708984 255 255 255
9.555129051208496 -0.8217082023620605 -1.6300519704818726 255 255 255
9.459318161010742 -0.7537335753440857 -1.6480430364608765 255 255 255
9.561452865600586 -0.829829752445221 -1.6986159086227417 255 255 255
9.5263090133667 -0.8221964240074158 -1.699106216430664 255 255 255
9.5555419921875 -0.6568079590797424 -1.6585313081741333 255 255 255
9.476591110229492 -0.7021657824516296 -1.6223407983779907 255 255 255
9.503259658813477 -0.6082043647766113 -1.629286289215088 255 255 255
9.490476608276367 -0.6060441732406616 -1.5810831785202026 255 255 255
9.596391677856445 -0.5529595613479614 -1.649407982826233 255 255 255
9.589781761169434 -0.4774799346923828 -1.6502718925476074 255 255 255
9.555234909057617 -0.5186828374862671 -1.6861661672592163 255 255 255
9.486173629760742 -0.4688011407852173 -1.682887315750122 255 255 255
9.534454345703125 -0.3507874310016632 -1.6919724941253662 255 255 255
9.520326614379883 -0.45899757742881775 -1.5965842008590698 255 255 255
9.449471473693848 -0.4193814694881439 -1.6787358522415161 255 255 255
9.632983207702637 -0.389727920293808 -1.750296711921692 255 255 255
9.487177848815918 -0.3181602954864502 -1.6474720239639282 255 255 255
9.490626335144043 -0.37419211864471436 -1.5698626041412354 255 255 255
9.533625602722168 -0.39847129583358765 -1.7336231470108032 255 255 255
9.41751766204834 -0.33332452178001404 -1.6270828247070312 255 255 255
9.557708740234375 -0.2432832419872284 -1.636489987373352 255 255 255
9.381952285766602 -0.27263328433036804 -1.666142463684082 255 255 255
9.541410446166992 -0.2390054315328598 -1.720882773399353 255 255 255
9.408567428588867 -0.1874275803565979 -1.6261273622512817 255 255 255
9.441718101501465 -0.1627672165632248 -1.5358121395111084 255 255 255
9.46072006225586 -0.08997482061386108 -1.6351197957992554 255 255 255
9.459065437316895 -0.18827524781227112 -1.6006673574447632 255 255 255
9.358376502990723 0.045297686010599136 -1.6385176181793213 255 255 255
9.372673034667969 -0.03750266134738922 -1.6278655529022217 255 255 255
9.388690948486328 0.051368407905101776 -1.532623529434204 255 255 255
9.348676681518555 0.028194351121783257 -1.609902262687683 255 255 255
9.397307395935059 0.051330018788576126 -1.6400476694107056 255 255 255
9.43173599243164 0.07973440736532211 -1.5906445980072021 255 255 255
9.440072059631348 0.15187162160873413 -1.545097827911377 255 255 255
8.956233978271484 0.1610717624425888 -1.6691762208938599 255 255 255
8.986775398254395 0.18946851789951324 -1.5593432188034058 255 255 255
8.955204963684082 0.15100523829460144 -1.6257773637771606 255 255 255
9.125259399414062 0.27534425258636475 -1.575996994972229 255 255 255
9.026331901550293 0.38286763429641724 -1.578347086906433 255 255 255
8.973267555236816 0.3108007609844208 -1.7016929388046265 255 255 255
8.994030952453613 0.2693861424922943 -1.5103429555892944 255 255 255
9.00495433807373 0.3153620660305023 -1.5830268859863281 255 255 255
8.942313194274902 0.4359102249145508 -1.644425630569458 255 255 255
8.923894882202148 0.40909409523010254 -1.5253839492797852 255 255 255
8.868467330932617 0.4390498995780945 -1.6558939218521118 255 255 255
8.920266151428223 0.3944510519504547 -1.6042919158935547 255 255 255
8.973225593566895 0.4234662652015686 -1.6542789936065674 255 255 255
8.86211109161377 0.45462730526924133 -1.6662806272506714 255 255 255
8.896270751953125 0.5727273225784302 -1.6327418088912964 255 255 255
8.889429092407227 0.5623099207878113 -1.613519549369812 255 255 255
8.888611793518066 0.535375714302063 -1.5910654067993164 255 255 255
8.926336288452148 0.5934370756149292 -1.5880252122879028 255 255 255
8.935561180114746 0.5975059866905212 -1.6672391891479492 255 255 255
8.89402961730957 0.661384642124176 -1.6035373210906982 255 255 255
8.955839157104492 0.6966149210929871 -1.6066616773605347 255 255 255
8.94968032836914 0.6632657647132874 -1.6456658840179443 255 255 255
8.883808135986328 0.7491040229797363 -1.5897587537765503 255 255 255
8.885043144226074 0.7329371571540833 -1.550668478012085 255 255 255
8.85952091217041 0.7192357778549194 -1.595022439956665 255 255 255
8.869455337524414 0.724700927734375 -1.5784292221069336 255 255 255
8.827585220336914 0.7541210651397705 -1.625880479812622 255 255 255
8.934951782226562 0.896314263343811 -1.53335702419281 255 255 255
8.79169750213623 0.9105104804039001 -1.5699255466461182 255 255 255
7.695918083190918 0.7648509740829468 -1.4588391780853271 255 255 255
7.660308361053467 0.8088530898094177 -1.285593032836914 255 255 255
7.580170631408691 0.8554984331130981 -1.3214939832687378 255 255 255
7.49356746673584 0.829208254814148 -1.3057663440704346 255 255 255
7.348091125488281 0.8519170880317688 -1.2282819747924805 255 255 255
7.412925720214844 0.9163301587104797 -1.3265429735183716 255 255 255
7.313512325286865 0.845139741897583 -1.270039677619934 255 255 255
7.3020782470703125 0.8989225029945374 -1.2427527904510498 255 255 255
7.236688137054443 0.9741005301475525 -1.2757186889648438 255 255 255
7.235444068908691 0.8477684855461121 -1.3407787084579468 255 255 255
7.2532243728637695 0.9457156658172607 -1.2273776531219482 255 255 255
7.204267978668213 1.0092082023620605 -1.265177607536316 255 255 255
6.916264057159424 0.8493908047676086 -1.234940767288208 255 255 255
6.816010475158691 0.9804903864860535 -1.1960924863815308 255 255 255
6.7551374435424805 1.012515664100647 -1.2571628093719482 255 255 255
6.740724086761475 0.9521287679672241 -1.2411763668060303 255 255 255
6.692052841186523 0.9533652663230896 -1.1824226379394531 255 255 255
6.72998046875 1.0188952684402466 -1.1787214279174805 255 255 255
6.733602523803711 1.0790108442306519 -1.1557115316390991 255 255 255
6.62726354598999 1.0910273790359497 -1.1691235303878784 255 255 255
6.551578521728516 1.0418226718902588 -1.0773969888687134 255 255 255
6.573742866516113 1.0674842596054077 -1.1437655687332153 255 255 255
6.544399261474609 1.135711669921875 -1.1850656270980835 255 255 255
6.572627544403076 1.0808849334716797 -1.190529227256775 255 255 255
6.510467052459717 1.1397541761398315 -1.1337103843688965 255 255 255
6.431889057159424 1.0867253541946411 -1.1709731817245483 255 255 255
6.394308567047119 1.1258723735809326 -1.1541266441345215 255 255 255
6.403565883636475 1.1428686380386353 -1.2612930536270142 255 255 255
6.336575031280518 1.105955719947815 -1.1701325178146362 255 255 255
6.3594136238098145 1.1885524988174438 -1.1614782810211182 255 255 255
6.38322114944458 1.173336386680603 -1.1366554498672485 255 255 255
6.440515995025635 1.2236721515655518 -1.1350581645965576 255 255 255
6.3016815185546875 1.228742241859436 -1.132049322128296 255 255 255
6.266015529632568 1.1817705631256104 -1.1859585046768188 255 255 255
6.287651062011719 1.2876158952713013 -1.1206601858139038 255 255 255
6.30985689163208 1.2753018140792847 -1.1858882904052734 255 255 255
6.30730676651001 1.3403960466384888 -1.1153202056884766 255 255 255
6.306336402893066 1.3538180589675903 -1.1259092092514038 255 255 255
6.2766642570495605 1.3005326986312866 -1.1191269159317017 255 255 255
6.31233024597168 1.3716645240783691 -1.0672833919525146 255 255 255
6.371784210205078 1.4136543273925781 -1.0697927474975586 255 255 255
6.3350749015808105 1.428501009941101 -1.0640556812286377 255 255 255
6.368319988250732 1.397393822669983 -1.0130587816238403 255 255 255
6.229444980621338 1.4116108417510986 -1.1092238426208496 255 255 255
6.283952236175537 1.4448939561843872 -1.1885305643081665 255 255 255
6.301844596862793 1.52001953125 -1.1321241855621338 255 255 255
6.241133213043213 1.4680544137954712 -1.1415404081344604 255 255 255
6.390932559967041 1.533605694770813 -1.1872621774673462 255 255 255
6.425490856170654 1.6071383953094482 -1.138767957687378 255 255 255
6.399734020233154 1.4665467739105225 -1.1809858083724976 255 255 255
6.372758388519287 1.6080124378204346 -1.107743501663208 255 255 255
6.34546422958374 1.5101429224014282 -1.130310297012329 255 255 255
6.369856357574463 1.5978728532791138 -1.1484334468841553 255 255 255
6.2900567054748535 1.5839123725891113 -1.1278127431869507 255 255 255
6.324621200561523 1.7088148593902588 -1.1461248397827148 255 255 255
6.454514503479004 1.7212936878204346 -1.1771076917648315 255 255 255
6.3332905769348145 1.7642098665237427 -1.147672176361084 255 255 255
6.432815074920654 1.8580894470214844 -1.1293286085128784 255 255 255
6.383728504180908 1.7139294147491455 -1.1411889791488647 255 255 255
6.432084560394287 1.8160423040390015 -1.1883832216262817 255 255 255
6.337757587432861 1.8641177415847778 -1.1657397747039795 255 255 255
6.485544681549072 1.8911770582199097 -1.1824069023132324 255 255 255
6.461020469665527 1.8899343013763428 -1.2233963012695312 255 255 255
6.401769638061523 1.9970053434371948 -1.1195013523101807 255 255 255
6.449939727783203 1.898229956626892 -1.117586374282837 255 255 255
6.355712413787842 2.002018928527832 -1.2295682430267334 255 255 255
6.46917724609375 1.9021698236465454 -1.2145088911056519 255 255 255
6.43549919128418 1.8946715593338013 -1.1794382333755493 255 255 255
6.410028457641602 1.9190768003463745 -1.1904218196868896 255 255 255
6.518814563751221 2.048593521118164 -1.177239179611206 255 255 255
6.486441612243652 2.0076003074645996 -1.276414394378662 255 255 255
6.6057000160217285 2.1460952758789062 -1.178852915763855 255 255 255
6.512060642242432 2.141517162322998 -1.1582889556884766 255 255 255
6.343618392944336 2.081723690032959 -1.1672306060791016 255 255 255
6.3097124099731445 2.171621322631836 -1.2008904218673706 255 255 255
5.177588939666748 1.6754270792007446 -0.888896644115448 255 255 255
5.094516754150391 1.7342997789382935 -0.9085959196090698 255 255 255
5.074667930603027 1.6455553770065308 -0.9455325603485107 255 255 255
5.002668380737305 1.7099231481552124 -0.9436122179031372 255 255 255
4.9796624183654785 1.7230812311172485 -0.9257382154464722 255 255 255
4.927338123321533 1.6547021865844727 -0.86635422706604 255 255 255
4.9012908935546875 1.745530128479004 -0.8694489598274231 255 255 255
4.865118503570557 1.7100107669830322 -0.8002108931541443 255 255 255
4.797247409820557 1.7085639238357544 -0.8070765137672424 255 255 255
4.859553337097168 1.7842698097229004 -0.9415388107299805 255 255 255
4.788851261138916 1.838822364807129 -0.9363807439804077 255 255 255
4.808239936828613 1.7648613452911377 -0.8403664231300354 255 255 255
4.729435920715332 1.8410838842391968 -0.8167504072189331 255 255 255
4.70938777923584 1.8209415674209595 -0.8200506567955017 255 255 255
4.736769199371338 1.7945246696472168 -0.8057528734207153 255 255 255
4.655292987823486 1.8339518308639526 -0.7908243536949158 255 255 255
4.682706356048584 1.838424801826477 -0.8348966240882874 255 255 255
4.619041442871094 1.8022775650024414 -0.9226247668266296 255 255 255
4.66508674621582 1.8085670471191406 -0.7823207974433899 255 255 255
4.588948726654053 1.777347445487976 -0.8290377259254456 255 255 255
4.573770999908447 1.7762737274169922 -0.7120245695114136 255 255 255
4.579934120178223 1.8040528297424316 -0.8739786744117737 255 255 255
4.49681282043457 1.848601222038269 -0.8118920922279358 255 255 255
4.504410266876221 1.755535364151001 -0.8203268647193909 255 255 255
4.372328281402588 1.8790286779403687 -0.8035098910331726 255 255 255
4.442663669586182 1.8417305946350098 -0.7739278078079224 255 255 255
4.498907089233398 1.8479269742965698 -0.7432228326797485 255 255 255
4.385921955108643 1.8898032903671265 -0.7659417390823364 255 255 255
4.391324520111084 1.7837464809417725 -0.7992148995399475 255 255 255
4.357292652130127 1.865095853805542 -0.871274471282959 255 255 255
4.423556804656982 1.953747272491455 -0.7556370496749878 255 255 255
4.223442554473877 1.9251058101654053 -0.7815290093421936 255 255 255
4.256814002990723 1.880888819694519 -0.7866512537002563 255 255 255
4.244546413421631 1.910616159439087 -0.7611055970191956 255 255 255
4.189314365386963 1.8895776271820068 -0.8129652142524719 255 255 255
4.294398784637451 1.9490224123001099 -0.8251910209655762 255 255 255
4.25026798248291 1.9957911968231201 -0.7763698697090149 255 255 255
4.198641300201416 1.8909611701965332 -0.7533082365989685 255 255 255
4.149728775024414 1.8769088983535767 -0.7812121510505676 255 255 255
4.165520191192627 1.9668766260147095 -0.7847485542297363 255 255 255
4.176976680755615 1.927126169204712 -0.7729315757751465 255 255 255
4.193848609924316 1.9668127298355103 -0.7094628214836121 255 255 255
4.068653583526611 1.922526240348816 -0.7942103743553162 255 255 255
4.074653148651123 2.0070512294769287 -0.7415012121200562 255 255 255
4.132503986358643 1.9747579097747803 -0.812692403793335 255 255 255
3.927544593811035 1.9659631252288818 -0.6999126672744751 255 255 255
4.0488057136535645 2.0153205394744873 -0.6719508767127991 255 255 255
4.033249855041504 1.9556337594985962 -0.6628658771514893 255 255 255
4.016441822052002 2.0382401943206787 -0.7249285578727722 255 255 255
3.954197883605957 2.0143749713897705 -0.8113558888435364 255 255 255
3.99145245552063 1.9415757656097412 -0.6975707411766052 255 255 255
3.9642043113708496 1.9936479330062866 -0.7538192868232727 255 255 255
3.9101388454437256 2.0149974822998047 -0.646453320980072 255 255 255
3.872689962387085 2.052621841430664 -0.9034585356712341 255 255 255
3.8148193359375 2.0406575202941895 -0.7073025703430176 255 255 255
3.828533172607422 2.0044963359832764 -0.6612803339958191 255 255 255
3.421333074569702 2.171403646469116 -0.6972908973693848 255 255 255
3.372297763824463 2.169642925262451 -0.7212150692939758 255 255 255
3.3841300010681152 2.042459487915039 -0.6255000829696655 255 255 255
3.4218661785125732 2.1531035900115967 -0.6314547657966614 255 255 255
3.3329598903656006 2.204721450805664 -0.586778998374939 255 255 255
3.3275039196014404 2.186081647872925 -0.6129039525985718 255 255 255
3.2809205055236816 2.2414495944976807 -0.5886276364326477 255 255 255
3.4003894329071045 2.201319694519043 -0.62824547290802 255 255 255
3.3695058822631836 2.162883996963501 -0.6780308485031128 255 255 255
3.315467119216919 2.379350423812866 -0.6897602081298828 255 255 255
7.60833740234375 -6.246091365814209 -1.8449615240097046 255 255 255
7.600160121917725 -6.185553073883057 -1.766798496246338 255 255 255
7.692570686340332 -6.140066146850586 -1.7844825983047485 255 255 255
5.006348609924316 -3.9765524864196777 -1.143255591392517 255 255 255
5.079147815704346 -3.887643575668335 -1.1907559633255005 255 255 255
5.056342124938965 -3.841449022293091 -1.0735841989517212 255 255 255
4.9441962242126465 -3.872539758682251 -1.0990415811538696 255 255 255
4.975966453552246 -3.900888442993164 -1.0711281299591064 255 255 255
5.051308631896973 -3.78265118598938 -1.0719692707061768 255 255 255
5.000420093536377 -3.8490846157073975 -1.1211334466934204 255 255 255
5.025700569152832 -3.7509937286376953 -1.090307354927063 255 255 255
5.002708435058594 -3.7103006839752197 -1.1156688928604126 255 255 255
5.0252299308776855 -3.79638409614563 -1.051491141319275 255 255 255
4.938861846923828 -3.6745352745056152 -0.9643778800964355 255 255 255
5.155984401702881 -3.807344913482666 -1.181505560874939 255 255 255
5.071841716766357 -3.8017375469207764 -1.1183487176895142 255 255 255
5.12428092956543 -3.654391050338745 -1.1113027334213257 255 255 255
5.053047180175781 -3.7101340293884277 -1.1039947271347046 255 255 255
5.167537212371826 -3.6913836002349854 -1.0600353479385376 255 255 255
5.154571533203125 -3.618056297302246 -1.076278805732727 255 255 255
5.103507995605469 -3.650188684463501 -1.0320184230804443 255 255 255
5.154572486877441 -3.619910955429077 -1.0916364192962646 255 255 255
5.06925630569458 -3.5244619846343994 -1.1068485975265503 255 255 255
5.147965431213379 -3.478641986846924 -1.0602625608444214 255 255 255
5.11413049697876 -3.5342657566070557 -1.1354186534881592 255 255 255
5.185143947601318 -3.452890396118164 -1.0359464883804321 255 255 255
5.059391975402832 -3.3454198837280273 -1.0684049129486084 255 255 255
5.164539337158203 -3.350961208343506 -1.1545356512069702 255 255 255
5.206837177276611 -3.3723647594451904 -1.0926746129989624 255 255 255
5.231612205505371 -3.049376964569092 -1.1772481203079224 255 255 255
5.186750411987305 -3.116502523422241 -0.9974820613861084 255 255 255
5.163287162780762 -3.063593626022339 -1.0696616172790527 255 255 255
5.2578301429748535 -3.1734533309936523 -1.0815565586090088 255 255 255
5.223123073577881 -3.043121814727783 -1.0138473510742188 255 255 255
5.275921821594238 -3.0454213619232178 -1.125781536102295 255 255 255
5.243541240692139 -3.0209755897521973 -1.109700322151184 255 255 255
5.32712459564209 -3.003140926361084 -1.05595862865448 255 255 255
5.305530071258545 -3.0500376224517822 -1.1252741813659668 255 255 255
5.305144786834717 -2.9738259315490723 -1.147527813911438 255 255 255
5.410053253173828 -2.9859061241149902 -1.076629638671875 255 255 255
5.219935894012451 -2.8710989952087402 -1.0839998722076416 255 255 255
5.280367851257324 -2.919654130935669 -1.0148624181747437 255 255 255
5.3072028160095215 -2.9280407428741455 -1.0294471979141235 255 255 255
5.309106826782227 -2.991032361984253 -1.070790410041809 255 255 255
5.366480827331543 -2.902773141860962 -1.101846694946289 255 255 255
5.369071960449219 -2.8811328411102295 -1.081399917602539 255 255 255
5.359058856964111 -2.8678340911865234 -1.038047432899475 255 255 255
5.28148078918457 -2.843125343322754 -1.0418275594711304 255 255 255
5.302267551422119 -2.8012638092041016 -1.0307536125183105 255 255 255
5.350035190582275 -2.841590642929077 -1.013904333114624 255 255 255
5.32321310043335 -2.780029535293579 -1.0622754096984863 255 255 255
5.460380554199219 -2.7333297729492188 -1.0366781949996948 255 255 255
7.4834980964660645 -3.4565136432647705 -1.4866139888763428 255 255 255
7.678806781768799 -3.544907808303833 -1.4899752140045166 255 255 255
7.738893985748291 -3.4096007347106934 -1.5060606002807617 255 255 255
7.951117515563965 -3.4505088329315186 -1.546329379081726 255 255 255
7.922640323638916 -3.4065585136413574 -1.5757063627243042 255 255 255
9.057621955871582 -3.820392608642578 -1.7050702571868896 255 255 255
9.081840515136719 -3.7529489994049072 -1.7854772806167603 255 255 255
9.06393051147461 -3.7786145210266113 -1.756583571434021 255 255 255
9.062986373901367 -3.660184383392334 -1.7310115098953247 255 255 255
9.083694458007812 -3.727977991104126 -1.767134666442871 255 255 255
9.005967140197754 -3.689767599105835 -1.747920036315918 255 255 255
9.082125663757324 -3.71396541595459 -1.7450979948043823 255 255 255
9.056239128112793 -3.4870424270629883 -1.7791651487350464 255 255 255
9.03438663482666 -3.5578582286834717 -1.8466531038284302 255 255 255
9.027444839477539 -3.622781276702881 -1.7121325731277466 255 255 255
8.954239845275879 -3.576749801635742 -1.7446907758712769 255 255 255
8.99971866607666 -3.541771650314331 -1.7217965126037598 255 255 255
9.1148042678833 -3.487684965133667 -1.7746254205703735 255 255 255
8.951001167297363 -3.426424741744995 -1.8392953872680664 255 255 255
9.08037281036377 -3.567707061767578 -1.6884465217590332 255 255 255
9.005532264709473 -3.3818395137786865 -1.6402881145477295 255 255 255
9.029860496520996 -3.333758592605591 -1.7778233289718628 255 255 255
9.119094848632812 -3.293412685394287 -1.7871323823928833 255 255 255
9.105709075927734 -3.2520248889923096 -1.7461786270141602 255 255 255
9.086888313293457 -3.292391538619995 -1.682121753692627 255 255 255
9.060726165771484 -3.244694232940674 -1.8107085227966309 255 255 255
9.057690620422363 -3.2460668087005615 -1.703567385673523 255 255 255
9.04371452331543 -3.197707414627075 -1.7610063552856445 255 255 255
9.044488906860352 -3.1230950355529785 -1.7149572372436523 255 255 255
9.080007553100586 -3.0676164627075195 -1.738808035850525 255 255 255
9.040443420410156 -3.1534435749053955 -1.7292829751968384 255 255 255
9.126543998718262 -3.049940586090088 -1.7017685174942017 255 255 255
9.105493545532227 -3.0256917476654053 -1.7178254127502441 255 255 255
9.096077919006348 -3.063610315322876 -1.7317821979522705 255 255 255
9.14276123046875 -2.993683338165283 -1.8398412466049194 255 255 255
9.062305450439453 -2.9640467166900635 -1.786300539970398 255 255 255
9.079526901245117 -2.8600451946258545 -1.6497892141342163 255 255 255
9.16762638092041 -2.9269869327545166 -1.7688273191452026 255 255 255
9.17729377746582 -2.9099669456481934 -1.7257792949676514 255 255 255
9.19944953918457 -2.7650411128997803 -1.641234040260315 255 255 255
9.130913734436035 -2.856349229812622 -1.7224878072738647 255 255 255
9.072770118713379 -2.8399832248687744 -1.7631856203079224 255 255 255
9.1884765625 -2.765354871749878 -1.656166434288025 255 255 255
9.175524711608887 -2.776524782180786 -1.695858359336853 255 255 255
9.189632415771484 -2.881253719329834 -1.6588917970657349 255 255 255
9.192159652709961 -2.6454970836639404 -1.7142901420593262 255 255 255
9.164417266845703 -2.6311163902282715 -1.7264645099639893 255 255 255
9.144610404968262 -2.593410015106201 -1.751517653465271 255 255 255
9.197097778320312 -2.568835735321045 -1.7786109447479248 255 255 255
9.308802604675293 -2.576920509338379 -1.6887133121490479 255 255 255
9.162362098693848 -2.5665104389190674 -1.8135682344436646 255 255 255
9.213390350341797 -2.5560715198516846 -1.6967726945877075 255 255 255
9.026812553405762 -2.5032711029052734 -1.6897401809692383 255 255 255
9.152607917785645 -2.4646294116973877 -1.7272342443466187 255 255 255
9.142878532409668 -2.4012506008148193 -1.7663524150848389 255 255 255
9.205608367919922 -2.3859329223632812 -1.7195926904678345 255 255 255
9.208616256713867 -2.4507083892822266 -1.6433122158050537 255 255 255
9.147817611694336 -2.3217787742614746 -1.730730414390564 255 255 255
9.197502136230469 -2.3646605014801025 -1.7394415140151978 255 255 255
9.169541358947754 -2.2614543437957764 -1.7142143249511719 255 255 255
9.137011528015137 -2.2633211612701416 -1.5917569398880005 255 255 255
9.233293533325195 -2.260284900665283 -1.6880464553833008 255 255 255
9.190923690795898 -2.2426655292510986 -1.7366663217544556 255 255 255
9.201714515686035 -2.1562187671661377 -1.7157578468322754 255 255 255
9.170969009399414 -2.1422600746154785 -1.68785560131073 255 255 255
9.22862434387207 -2.126819133758545 -1.7123059034347534 255 255 255
9.166739463806152 -2.174391984939575 -1.6856725215911865 255 255 255
9.142075538635254 -2.033870220184326 -1.6734970808029175 255 255 255
9.151778221130371 -2.0102996826171875 -1.6460566520690918 255 255 255
9.196735382080078 -2.083284854888916 -1.7136033773422241 255 255 255
9.238295555114746 -1.9747003316879272 -1.6757829189300537 255 255 255
9.193503379821777 -1.9382697343826294 -1.682823657989502 255 255 255
9.176066398620605 -1.871546983718872 -1.6761714220046997 255 255 255
9.294798851013184 -1.8974779844284058 -1.6577287912368774 255 255 255
9.178811073303223 -1.9177916049957275 -1.7921723127365112 255 255 255
9.168473243713379 -1.8653780221939087 -1.7537184953689575 255 255 255
9.074128150939941 -1.838594675064087 -1.7372300624847412 255 255 255
9.263041496276855 -1.7548229694366455 -1.7638983726501465 255 255 255
9.154190063476562 -1.6826380491256714 -1.6886863708496094 255 255 255
9.150050163269043 -1.7376775741577148 -1.7420752048492432 255 255 255
9.230341911315918 -1.7440989017486572 -1.6702826023101807 255 255 255
9.20969009399414 -1.6794257164001465 -1.6743412017822266 255 255 255
9.16685962677002 -1.6583802700042725 -1.6876239776611328 255 255 255
9.254185676574707 -1.5812487602233887 -1.7973902225494385 255 255 255
9.28581428527832 -1.6799439191818237 -1.759640097618103 255 255 255
9.167698860168457 -1.5537818670272827 -1.7411184310913086 255 255 255
9.16800308227539 -1.5356730222702026 -1.6756163835525513 255 255 255
9.246964454650879 -1.5644370317459106 -1.682216763496399 255 255 255
9.142254829406738 -1.4755061864852905 -1.716086983680725 255 255 255
9.141851425170898 -1.5477036237716675 -1.6892211437225342 255 255 255
9.234442710876465 -1.4959471225738525 -1.7507365942001343 255 255 255
9.222814559936523 -1.3538737297058105 -1.668125867843628 255 255 255
9.247358322143555 -1.4589900970458984 -1.5936017036437988 255 255 255
9.304352760314941 -1.366409420967102 -1.7249572277069092 255 255 255
9.283574104309082 -1.3618837594985962 -1.7250417470932007 255 255 255
9.291386604309082 -1.185356616973877 -1.6467149257659912 255 255 255
9.240175247192383 -1.2892392873764038 -1.6633858680725098 255 255 255
9.20510196685791 -1.277310848236084 -1.5994421243667603 255 255 255
9.20914077758789 -1.2463253736495972 -1.6162663698196411 255 255 255
9.199441909790039 -1.2055491209030151 -1.6994731426239014 255 255 255
9.167360305786133 -1.1669251918792725 -1.7173829078674316 255 255 255
9.14653491973877 -1.239904761314392 -1.698029637336731 255 255 255
9.159696578979492 -1.1228018999099731 -1.6296277046203613 255 255 255
9.207287788391113 -1.1155178546905518 -1.5242897272109985 255 255 255
9.122635841369629 -1.0373849868774414 -1.6348060369491577 255 255 255
9.20864200592041 -0.9096553921699524 -1.677808165550232 255 255 255
9.243213653564453 -1.054426670074463 -1.6289265155792236 255 255 255
9.17257308959961 -0.9970247745513916 -1.6900089979171753 255 255 255
9.257911682128906 -0.9774942994117737 -1.6953538656234741 255 255 255
9.22612476348877 -0.9215693473815918 -1.6589841842651367 255 255 255
9.201586723327637 -0.8881980180740356 -1.6843178272247314 255 255 255
9.188091278076172 -0.859923779964447 -1.6704692840576172 255 255 255
9.108416557312012 -0.8287561535835266 -1.694158673286438 255 255 255
9.181764602661133 -0.7567881941795349 -1.5782123804092407 255 255 255
9.074629783630371 -0.8083794713020325 -1.6333637237548828 255 255 255
9.098180770874023 -0.7139216065406799 -1.5961673259735107 255 255 255
9.13002872467041 -0.6300522089004517 -1.661728024482727 255 255 255
9.178461074829102 -0.6793371438980103 -1.6622021198272705 255 255 255
9.159494400024414 -0.6685605049133301 -1.6728057861328125 255 255 255
9.132993698120117 -0.6181966066360474 -1.6236623525619507 255 255 255
9.173133850097656 -0.5535948872566223 -1.6289513111114502 255 255 255
9.161587715148926 -0.6384243965148926 -1.7246654033660889 255 255 255
9.152644157409668 -0.5096591711044312 -1.6823124885559082 255 255 255
9.117588996887207 -0.592559278011322 -1.6289539337158203 255 255 255
9.10549545288086 -0.4916309416294098 -1.7310011386871338 255 255 255
9.134132385253906 -0.48409464955329895 -1.6486258506774902 255 255 255
9.040337562561035 -0.46078214049339294 -1.6143338680267334 255 255 255
9.084379196166992 -0.49110671877861023 -1.541748285293579 255 255 255
9.103626251220703 -0.30461224913597107 -1.6450133323669434 255 255 255
9.081993103027344 -0.5366674065589905 -1.662024736404419 255 255 255
9.176020622253418 -0.43146613240242004 -1.5952341556549072 255 255 255
9.09182357788086 -0.2901453673839569 -1.4585803747177124 255 255 255
9.147359848022461 -0.3038002848625183 -1.6760185956954956 255 255 255
9.022398948669434 -0.27831804752349854 -1.5674792528152466 255 255 255
8.944090843200684 -0.27488765120506287 -1.6149237155914307 255 255 255
9.047709465026855 -0.23026038706302643 -1.5969477891921997 255 255 255
9.007508277893066 -0.15662170946598053 -1.565521478652954 255 255 255
9.153426170349121 -0.17607706785202026 -1.682388424873352 255 255 255
9.055047988891602 -0.1945561319589615 -1.5905841588974 255 255 255
9.02462100982666 -0.07995087653398514 -1.636531114578247 255 255 255
9.108546257019043 -0.06986816972494125 -1.7502424716949463 255 255 255
9.056401252746582 -0.03968824818730354 -1.5994012355804443 255 255 255
9.046100616455078 0.007144373841583729 -1.5739524364471436 255 255 255
8.999441146850586 0.12922030687332153 -1.608931303024292 255 255 255
9.007128715515137 0.04216022044420242 -1.7052340507507324 255 255 255
9.000473022460938 -0.006716419011354446 -1.6578319072723389 255 255 255
9.011271476745605 0.11546532064676285 -1.6292774677276611 255 255 255
9.067412376403809 0.05505044758319855 -1.6805031299591064 255 255 255
8.956313133239746 0.10875236243009567 -1.627395510673523 255 255 255
8.48486614227295 0.06651497632265091 -1.6577544212341309 255 255 255
8.445379257202148 0.19075408577919006 -1.7022619247436523 255 255 255
8.460393905639648 0.1279180943965912 -1.6247864961624146 255 255 255
8.480123519897461 0.20228995382785797 -1.5303833484649658 255 255 255
8.373881340026855 0.1806296855211258 -1.6226752996444702 255 255 255
8.495319366455078 0.19604608416557312 -1.615617036819458 255 255 255
8.491250038146973 0.22423118352890015 -1.6794694662094116 255 255 255
8.367326736450195 0.3240092992782593 -1.631157636642456 255 255 255
8.396003723144531 0.3224680423736572 -1.6407928466796875 255 255 255
8.47492790222168 0.40013954043388367 -1.6232088804244995 255 255 255
8.523924827575684 0.4313812255859375 -1.5208094120025635 255 255 255
8.414399147033691 0.3624941110610962 -1.564375400543213 255 255 255
8.53183364868164 0.3681179881095886 -1.5431742668151855 255 255 255
8.405885696411133 0.3896208703517914 -1.6805416345596313 255 255 255
8.453620910644531 0.5012044906616211 -1.6225274801254272 255 255 255
8.456741333007812 0.5207607746124268 -1.5393842458724976 255 255 255
8.363706588745117 0.4809792935848236 -1.5392855405807495 255 255 255
8.346534729003906 0.502529501914978 -1.5202550888061523 255 255 255
8.371068000793457 0.6800752282142639 -1.552733063697815 255 255 255
8.566229820251465 0.5563849806785583 -1.601691484451294 255 255 255
8.415462493896484 0.6104981899261475 -1.5743944644927979 255 255 255
8.352499961853027 0.6483213305473328 -1.596771001815796 255 255 255
8.254820823669434 0.5868669748306274 -1.6023656129837036 255 255 255
8.271251678466797 0.7342402338981628 -1.6679257154464722 255 255 255
8.395441055297852 0.8118017315864563 -1.5781947374343872 255 255 255
8.356816291809082 0.691112220287323 -1.6528822183609009 255 255 255
8.375890731811523 0.7641964554786682 -1.577138900756836 255 255 255
8.388053894042969 0.8481236100196838 -1.516493797302246 255 255 255
8.296747207641602 0.7223346829414368 -1.6330592632293701 255 255 255
8.194621086120605 0.8400086164474487 -1.615891456604004 255 255 255
8.414217948913574 0.8631632924079895 -1.6036409139633179 255 255 255
8.34990406036377 0.8733106255531311 -1.5331436395645142 255 255 255
8.371006965637207 0.8903765678405762 -1.5870616436004639 255 255 255
8.266042709350586 0.8900169730186462 -1.614072322845459 255 255 255
8.109354972839355 0.9102034568786621 -1.5638245344161987 255 255 255
8.21256160736084 0.9816054701805115 -1.570403814315796 255 255 255
7.234038829803467 0.7999203205108643 -1.390465259552002 255 255 255
7.235069274902344 0.8937507271766663 -1.4380179643630981 255 255 255
7.174356460571289 0.96836918592453 -1.438439965248108 255 255 255
7.262134075164795 0.8935003876686096 -1.4170966148376465 255 255 255
7.016423225402832 0.8784868121147156 -1.4189441204071045 255 255 255
6.674681663513184 0.9096561074256897 -1.2714519500732422 255 255 255
6.698903560638428 0.9430556297302246 -1.2730810642242432 255 255 255
6.660512924194336 0.9413491487503052 -1.2509818077087402 255 255 255
6.689817428588867 1.0235905647277832 -1.2281465530395508 255 255 255
6.637063980102539 0.9724254012107849 -1.1952298879623413 255 255 255
6.6514081954956055 1.0327508449554443 -1.201003074645996 255 255 255
6.545768737792969 1.0145946741104126 -1.2746039628982544 255 255 255
6.625925540924072 1.0161608457565308 -1.2004084587097168 255 255 255
6.594645977020264 1.0149383544921875 -1.164055347442627 255 255 255
6.534622669219971 1.122792363166809 -1.155295968055725 255 255 255
6.477946758270264 1.0658788681030273 -1.173758864402771 255 255 255
6.404354572296143 1.1631839275360107 -1.1912766695022583 255 255 255
6.456818580627441 1.0849435329437256 -1.2005372047424316 255 255 255
6.39699649810791 1.1414539813995361 -1.3004695177078247 255 255 255
6.387057304382324 1.1208744049072266 -1.1719629764556885 255 255 255
6.4384050369262695 1.099841594696045 -1.2027679681777954 255 255 255
6.438099384307861 1.169106364250183 -1.2449837923049927 255 255 255
6.3558125495910645 1.1501165628433228 -1.159891128540039 255 255 255
6.397577285766602 1.2493574619293213 -1.2175891399383545 255 255 255
6.40352725982666 1.2893446683883667 -1.2375781536102295 255 255 255
6.315176010131836 1.26720130443573 -1.215915560722351 255 255 255
6.356151580810547 1.2735130786895752 -1.124475121498108 255 255 255
6.270729064941406 1.3262321949005127 -1.1556522846221924 255 255 255
6.2906494140625 1.3115323781967163 -1.358067274093628 255 255 255
6.335642337799072 1.3159536123275757 -1.2584199905395508 255 255 255
6.290168285369873 1.317685842514038 -1.2184169292449951 255 255 255
6.43639612197876 1.3584345579147339 -1.1778733730316162 255 255 255
6.376689434051514 1.440643072128296 -1.2576028108596802 255 255 255
6.360324859619141 1.4620453119277954 -1.2259085178375244 255 255 255
6.270595550537109 1.538855791091919 -1.2445849180221558 255 255 255
6.28374719619751 1.4870067834854126 -1.2500686645507812 255 255 255
6.3215651512146 1.4555866718292236 -1.201233983039856 255 255 255
6.307931900024414 1.546204924583435 -1.19424307346344 255 255 255
6.467737197875977 1.5912941694259644 -1.1519172191619873 255 255 255
6.425497531890869 1.5554215908050537 -1.2710418701171875 255 255 255
6.45674991607666 1.660760760307312 -1.2186224460601807 255 255 255
6.392182350158691 1.6756964921951294 -1.2742455005645752 255 255 255
6.397990703582764 1.6161364316940308 -1.1682583093643188 255 255 255
6.442462921142578 1.6579629182815552 -1.2333266735076904 255 255 255
6.428912162780762 1.7351408004760742 -1.180342197418213 255 255 255
6.386477947235107 1.6505070924758911 -1.180437445640564 255 255 255
6.525509834289551 1.686599612236023 -1.255727767944336 255 255 255
6.568431377410889 1.782999038696289 -1.2408400774002075 255 255 255
6.5605878829956055 1.762891411781311 -1.2815834283828735 255 255 255
6.4043803215026855 1.735835075378418 -1.2258838415145874 255 255 255
6.480484485626221 1.776963710784912 -1.226841926574707 255 255 255
6.535338401794434 1.883334755897522 -1.2079763412475586 255 255 255
6.490073204040527 1.8153021335601807 -1.1928417682647705 255 255 255
6.417685031890869 1.9272910356521606 -1.3114501237869263 255 255 255
6.584545612335205 1.9444814920425415 -1.3496809005737305 255 255 255
6.574720859527588 1.925826072692871 -1.1692091226577759 255 255 255
6.597123146057129 1.9254016876220703 -1.2696584463119507 255 255 255
6.487307071685791 1.971330165863037 -1.3272989988327026 255 255 255
6.428712368011475 2.015925407409668 -1.1659587621688843 255 255 255
6.568897724151611 1.9930455684661865 -1.3439455032348633 255 255 255
6.639182090759277 1.9997977018356323 -1.3617091178894043 255 255 255
6.674344539642334 2.0375707149505615 -1.3134509325027466 255 255 255
6.496201515197754 2.055046558380127 -1.2360610961914062 255 255 255
6.250067710876465 1.9386435747146606 -1.225623369216919 255 255 255
5.147367000579834 1.6791480779647827 -1.0100626945495605 255 255 255
5.059830665588379 1.747963786125183 -1.0851880311965942 255 255 255
5.041889667510986 1.6573359966278076 -0.9461712837219238 255 255 255
5.11342191696167 1.620174765586853 -0.9506242871284485 255 255 255
4.970592975616455 1.6787292957305908 -0.98886638879776 255 255 255
5.005479335784912 1.714561939239502 -0.9058572053909302 255 255 255
4.935737133026123 1.7613776922225952 -0.8762425184249878 255 255 255
4.887402534484863 1.6950689554214478 -0.928754985332489 255 255 255
4.907780647277832 1.6785736083984375 -0.8873226642608643 255 255 255
4.783946990966797 1.81829035282135 -0.9301405549049377 255 255 255
4.865664958953857 1.8036649227142334 -0.8457810878753662 255 255 255
4.770252704620361 1.7104867696762085 -0.906632125377655 255 255 255
4.757073402404785 1.7368625402450562 -1.0250463485717773 255 255 255
4.748493194580078 1.7210493087768555 -0.9202283024787903 255 255 255
4.702507972717285 1.7220029830932617 -0.8460102081298828 255 255 255
4.64521598815918 1.7115492820739746 -0.881628155708313 255 255 255
4.684939861297607 1.7040138244628906 -0.8194285035133362 255 255 255
4.69014310836792 1.7414054870605469 -0.8704844117164612 255 255 255
4.534862518310547 1.7564226388931274 -0.9253750443458557 255 255 255
4.659913063049316 1.8656879663467407 -0.9498757123947144 255 255 255
4.520720481872559 1.7883180379867554 -0.9040761590003967 255 255 255
4.4736480712890625 1.7863502502441406 -0.8586869239807129 255 255 255
4.494044303894043 1.7523695230484009 -0.817146360874176 255 255 255
4.536768913269043 1.8565104007720947 -0.9307646155357361 255 255 255
4.360825538635254 1.7709062099456787 -0.8783308267593384 255 255 255
4.506165027618408 1.752083659172058 -0.7773825526237488 255 255 255
4.4305419921875 1.8278517723083496 -0.8585181832313538 255 255 255
4.378051280975342 1.8258039951324463 -0.8029739260673523 255 255 255
4.45877742767334 1.8706037998199463 -0.88498854637146 255 255 255
4.404304027557373 1.7415064573287964 -0.8240117430686951 255 255 255
4.341812610626221 1.7703447341918945 -0.8737533688545227 255 255 255
4.395610809326172 1.885701298713684 -0.8851497769355774 255 255 255
4.282778263092041 1.8559231758117676 -0.9100217223167419 255 255 255
4.269702434539795 1.8623706102371216 -0.7821463942527771 255 255 255
4.188713073730469 1.8712424039840698 -0.8411832451820374 255 255 255
4.1628007888793945 1.8030664920806885 -0.8620204925537109 255 255 255
4.18703556060791 1.8078150749206543 -0.8254494071006775 255 255 255
4.284116268157959 1.9284710884094238 -0.7705342173576355 255 255 255
4.211714267730713 1.861398458480835 -0.8582432270050049 255 255 255
4.09460973739624 1.9181329011917114 -0.8166255950927734 255 255 255
4.134500026702881 1.9200770854949951 -0.8053551912307739 255 255 255
4.092716693878174 1.869861364364624 -0.8327119946479797 255 255 255
4.051046848297119 1.9668537378311157 -0.8816042542457581 255 255 255
4.088122844696045 1.9099494218826294 -0.8117077350616455 255 255 255
4.075780391693115 1.9460996389389038 -0.7711960673332214 255 255 255
4.088620185852051 2.020491600036621 -0.7566850185394287 255 255 255
4.036713600158691 1.916630744934082 -0.8066208362579346 255 255 255
4.036381721496582 1.911388874053955 -0.7196455597877502 255 255 255
4.038764476776123 2.00101637840271 -0.7502738237380981 255 255 255
3.9465880393981934 1.9271190166473389 -0.7465826272964478 255 255 255
3.994572162628174 2.0548202991485596 -0.7514455914497375 255 255 255
3.958561897277832 2.0221755504608154 -0.7608022689819336 255 255 255
3.912745952606201 1.9899574518203735 -0.7149154543876648 255 255 255
3.8878514766693115 2.0136899948120117 -0.7785409092903137 255 255 255
3.987410545349121 1.9575694799423218 -0.5992535352706909 255 255 255
3.876798152923584 1.936597466468811 -0.795726478099823 255 255 255
3.902817964553833 2.055114984512329 -0.7669550180435181 255 255 255
3.8030691146850586 1.9990088939666748 -0.8040738701820374 255 255 255
3.786318302154541 2.012552261352539 -0.7561497688293457 255 255 255
3.801792860031128 2.0943591594696045 -0.7597904801368713 255 255 255
3.7189528942108154 1.9702012538909912 -0.7190210819244385 255 255 255
3.773540496826172 2.150989532470703 -0.7960909605026245 255 255 255
3.791316270828247 2.0060389041900635 -0.8515860438346863 255 255 255
3.727337121963501 2.0558605194091797 -0.7692354321479797 255 255 255
3.6785225868225098 2.0081820487976074 -0.652601420879364 255 255 255
3.638617515563965 2.010331869125366 -0.7483316659927368 255 255 255
3.6439602375030518 2.0838842391967773 -0.7153242230415344 255 255 255
3.6760170459747314 2.1334447860717773 -0.7267302870750427 255 255 255
3.608419179916382 2.036694049835205 -0.7163681983947754 255 255 255
3.59981107711792 2.0942399501800537 -0.6975786089897156 255 255 255
3.542964458465576 2.1052322387695312 -0.7402191758155823 255 255 255
3.6197853088378906 2.0786967277526855 -0.7257212400436401 255 255 255
3.50752592086792 1.971813678741455 -0.7349779009819031 255 255 255
3.5228137969970703 2.0422897338867188 -0.6957520842552185 255 255 255
3.577878475189209 2.164736747741699 -0.7729109525680542 255 255 255
3.5387723445892334 2.0748112201690674 -0.6158930659294128 255 255 255
3.5615968704223633 1.99956214427948 -0.7408968210220337 255 255 255
3.553168773651123 2.090146780014038 -0.703326940536499 255 255 255
3.477778673171997 2.0540082454681396 -0.8455449342727661 255 255 255
3.550856113433838 2.1127407550811768 -0.6959563493728638 255 255 255
3.4673073291778564 2.168780565261841 -0.7568231821060181 255 255 255
3.444181442260742 2.0829274654388428 -0.7411779165267944 255 255 255
3.3500072956085205 2.134253978729248 -0.6793600916862488 255 255 255
3.4008896350860596 2.046874523162842 -0.7488002181053162 255 255 255
3.339784860610962 2.137486457824707 -0.660155713558197 255 255 255
3.373166799545288 2.1292972564697266 -0.7112633585929871 255 255 255
3.4519600868225098 2.112553596496582 -0.7424991130828857 255 255 255
3.3858423233032227 2.1316752433776855 -0.7112448811531067 255 255 255
3.3631350994110107 2.0691335201263428 -0.6661643385887146 255 255 255
3.3935508728027344 2.2085015773773193 -0.6153554916381836 255 255 255
3.3063647747039795 2.2112674713134766 -0.6553792357444763 255 255 255
3.2783119678497314 2.1353442668914795 -0.644192636013031 255 255 255
3.3390138149261475 2.0895538330078125 -0.6665777564048767 255 255 255
3.539388656616211 2.2035117149353027 -0.7857488393783569 255 255 255
3.306628942489624 2.2342710494995117 -0.7123016119003296 255 255 255
5.0625433921813965 -3.9135894775390625 -1.2297008037567139 255 255 255
5.116694450378418 -3.9187912940979004 -1.1750794649124146 255 255 255
4.995053768157959 -3.829263925552368 -1.1677643060684204 255 255 255
5.022413730621338 -3.7978999614715576 -1.220471978187561 255 255 255
4.967917442321777 -3.7505407333374023 -1.1272579431533813 255 255 255
5.007318496704102 -3.8244497776031494 -1.2740930318832397 255 255 255
5.077923774719238 -3.7786364555358887 -1.1571797132492065 255 255 255
5.03002405166626 -3.7948660850524902 -1.191864013671875 255 255 255
5.069416046142578 -3.81730580329895 -1.1627246141433716 255 255 255
5.087210655212402 -3.6121535301208496 -1.1818286180496216 255 255 255
5.079282283782959 -3.6555750370025635 -1.203158974647522 255 255 255
5.192892074584961 -3.736384153366089 -1.179229497909546 255 255 255
5.036163806915283 -3.632418632507324 -1.1188379526138306 255 255 255
4.942071437835693 -3.6171953678131104 -1.1629308462142944 255 255 255
4.970489501953125 -3.6250991821289062 -1.1001672744750977 255 255 255
5.111406326293945 -3.714078187942505 -1.1188876628875732 255 255 255
5.179264545440674 -3.181135654449463 -1.1093829870224 255 255 255
5.134817123413086 -3.0963518619537354 -1.1305733919143677 255 255 255
5.238360404968262 -3.108135938644409 -1.0563141107559204 255 255 255
5.24372673034668 -3.2205729484558105 -1.177276611328125 255 255 255
5.256429195404053 -3.109637975692749 -1.1283364295959473 255 255 255
5.196833610534668 -3.0979175567626953 -1.1240378618240356 255 255 255
5.288214683532715 -3.044433355331421 -1.0975306034088135 255 255 255
5.280135154724121 -3.0292227268218994 -1.0564249753952026 255 255 255
5.148014545440674 -2.9744176864624023 -1.1605790853500366 255 255 255
5.232748985290527 -2.9137885570526123 -1.0827628374099731 255 255 255
5.143993854522705 -2.8400022983551025 -1.0962775945663452 255 255 255
5.087459564208984 -2.907698154449463 -1.1179301738739014 255 255 255
5.3024725914001465 -2.951242208480835 -1.0733184814453125 255 255 255
5.410457611083984 -2.9458322525024414 -1.0851356983184814 255 255 255
5.3911848068237305 -2.9423677921295166 -1.090174913406372 255 255 255
5.242849826812744 -2.95914363861084 -1.0753724575042725 255 255 255
5.301181793212891 -2.866133689880371 -1.0664379596710205 255 255 255
5.305240631103516 -2.9265167713165283 -1.116062045097351 255 255 255
5.333145618438721 -2.9328136444091797 -1.0644655227661133 255 255 255
5.4330973625183105 -2.8359129428863525 -1.10634446144104 255 255 255
5.345548152923584 -2.899414300918579 -1.0787863731384277 255 255 255
5.372725963592529 -2.9256622791290283 -1.186820387840271 255 255 255
5.386773586273193 -2.7981817722320557 -1.1248494386672974 255 255 255
5.429862976074219 -2.886955499649048 -1.1881972551345825 255 255 255
5.423447608947754 -2.7281277179718018 -1.1875444650650024 255 255 255
5.537476539611816 -2.967928171157837 -1.1684590578079224 255 255 255
5.8286967277526855 -2.8108434677124023 -1.1795979738235474 255 255 255
6.342752933502197 -3.0809826850891113 -1.2934859991073608 255 255 255
6.606368064880371 -3.018106460571289 -1.30115807056427 255 255 255
6.770695686340332 -3.152568817138672 -1.423125982284546 255 255 255
6.980007648468018 -3.2615842819213867 -1.5378010272979736 255 255 255
7.284125328063965 -3.349193811416626 -1.4665826559066772 255 255 255
7.5910725593566895 -3.489192485809326 -1.5065582990646362 255 255 255
7.790961742401123 -3.463543653488159 -1.6210449934005737 255 255 255
7.692239761352539 -3.3881261348724365 -1.6178511381149292 255 255 255
7.772785663604736 -3.447490930557251 -1.5826717615127563 255 255 255
7.809384822845459 -3.4477200508117676 -1.5609281063079834 255 255 255
8.002802848815918 -3.443655490875244 -1.7093572616577148 255 255 255
8.404293060302734 -3.6075589656829834 -1.6897655725479126 255 255 255
8.405108451843262 -3.6352291107177734 -1.6761806011199951 255 255 255
8.397937774658203 -3.573220729827881 -1.8150554895401 255 255 255
8.375946998596191 -3.5893173217773438 -1.7927823066711426 255 255 255
8.43095874786377 -3.4208080768585205 -1.77820885181427 255 255 255
8.41307544708252 -3.43527889251709 -1.784673810005188 255 255 255
8.342815399169922 -3.4204540252685547 -1.7485435009002686 255 255 255
8.398427963256836 -3.4030520915985107 -1.778404712677002 255 255 255
8.404664993286133 -3.3539700508117676 -1.712177038192749 255 255 255
8.433579444885254 -3.3441619873046875 -1.6732896566390991 255 255 255
