ply
format ascii 1.0
element vertex 685
property float x
property float y
property float z
property uchar red
property uchar green
property uchar blue
end_header
19.583520889282227 5.624519348144531 -0.18846115469932556 255 255 255
19.491058349609375 5.598217964172363 -0.19820648431777954 255 255 255
19.41339874267578 5.581841468811035 -0.29086777567863464 255 255 255
19.293779373168945 5.587535858154297 -0.1526535451412201 255 255 255
19.1756534576416 5.58632755279541 -0.19812777638435364 255 255 255
19.05446434020996 5.611720561981201 -0.19416403770446777 255 255 255
19.010696411132812 5.784511566162109 -0.20824722945690155 255 255 255
18.861543655395508 5.778573513031006 -0.24945609271526337 255 255 255
18.80131721496582 5.88804817199707 -0.16766227781772614 255 255 255
18.708934783935547 5.750418186187744 -0.15972231328487396 255 255 255
18.65068817138672 5.797067165374756 -0.1222584992647171 255 255 255
18.46929931640625 5.792268753051758 -0.21117250621318817 255 255 255
18.434640884399414 5.910009860992432 -0.16202089190483093 255 255 255
18.375415802001953 5.897791862487793 -0.2008141279220581 255 255 255
18.218950271606445 5.978269100189209 -0.16035032272338867 255 255 255
18.136890411376953 5.985645771026611 -0.26820632815361023 255 255 255
18.043045043945312 5.984757423400879 -0.1180233284831047 255 255 255
17.878795623779297 5.986907958984375 -0.12993434071540833 255 255 255
13.21467113494873 4.476318359375 -0.07849796116352081 255 255 255
13.119889259338379 4.516066551208496 -0.016007723286747932 255 255 255
17.59377098083496 6.1386942863464355 -0.15792225301265717 255 255 255
17.631793975830078 6.131062030792236 -0.24467246234416962 255 255 255
17.4603271484375 6.141361713409424 -0.18747007846832275 255 255 255
13.406576156616211 4.813274383544922 -0.1347562074661255 255 255 255
17.250978469848633 6.212264537811279 -0.23419146239757538 255 255 255
12.85470962524414 4.652186393737793 -0.026288345456123352 255 255 255
10.594944953918457 3.8381214141845703 -0.07077401131391525 255 255 255
10.572269439697266 3.952167272567749 -0.026185285300016403 255 255 255
10.516283988952637 3.9770584106445312 -0.11436708271503448 255 255 255
10.691740036010742 4.115203857421875 0.04576437547802925 255 255 255
10.365925788879395 4.019030570983887 -0.0812305361032486 255 255 255
10.315174102783203 3.9918015003204346 -0.026184532791376114 255 255 255
10.457773208618164 4.067407131195068 0.006805361248552799 255 255 255
10.32446575164795 4.134682655334473 -0.07080929726362228 255 255 255
10.293699264526367 4.107873916625977 -0.11278215795755386 255 255 255
10.227947235107422 4.13427734375 0.026235630735754967 255 255 255
12.646944046020508 5.169224739074707 -0.15841293334960938 255 255 255
12.696173667907715 5.212444305419922 -0.03138372302055359 255 255 255
10.085726737976074 4.157110691070557 0.01812056079506874 255 255 255
9.91974925994873 4.230034828186035 0.01769869029521942 255 255 255
9.83040714263916 4.189414978027344 -0.01502109132707119 255 255 255
10.02534008026123 4.19032621383667 0.025618422776460648 255 255 255
15.690082550048828 6.644927501678467 -0.29107096791267395 255 255 255
15.684785842895508 6.772749423980713 -0.10282589495182037 255 255 255
9.921002388000488 4.27302360534668 -0.06843826174736023 255 255 255
9.930039405822754 4.27180290222168 0.02672303467988968 255 255 255
9.849571228027344 4.363317966461182 -0.0013442510971799493 255 255 255
9.944820404052734 4.428414344787598 -0.10400626808404922 255 255 255
9.96566390991211 4.471094608306885 -0.07357807457447052 255 255 255
9.775814056396484 4.433940410614014 -0.08321631699800491 255 255 255
9.828752517700195 4.49358606338501 -0.03472607955336571 255 255 255
15.263717651367188 7.051886081695557 -0.22801083326339722 255 255 255
15.284379005432129 7.023183345794678 -0.13987702131271362 255 255 255
15.354565620422363 7.200196743011475 -0.05461887642741203 255 255 255
15.349160194396973 7.197973251342773 -0.21430248022079468 255 255 255
15.380316734313965 7.255886077880859 -0.25458836555480957 255 255 255
15.339003562927246 7.335711479187012 -0.12015067040920258 255 255 255
15.342856407165527 7.427720546722412 -0.19125667214393616 255 255 255
15.339842796325684 7.361592769622803 -0.13027988374233246 255 255 255
15.274733543395996 7.475105285644531 -0.21100766956806183 255 255 255
15.42967700958252 7.603708267211914 -0.13380831480026245 255 255 255
15.463142395019531 7.69144344329834 -0.037478793412446976 255 255 255
15.648076057434082 7.682390213012695 -0.13252340257167816 255 255 255
15.490967750549316 7.808211803436279 -0.09191098809242249 255 255 255
15.513092994689941 7.821820259094238 -0.12328136712312698 255 255 255
15.590412139892578 7.936877727508545 -0.11477188766002655 255 255 255
15.636717796325684 8.112353324890137 -0.10733281821012497 255 255 255
10.411563873291016 5.416848659515381 -0.003472271841019392 255 255 255
10.401850700378418 5.4837541580200195 -0.016070514917373657 255 255 255
15.690113067626953 8.22205638885498 -0.19709260761737823 255 255 255
10.158161163330078 5.3353962898254395 0.0020373130682855844 255 255 255
10.01859188079834 5.279558181762695 -0.06870334595441818 255 255 255
9.990496635437012 5.4073686599731445 -0.05425287038087845 255 255 255
10.074464797973633 5.391723155975342 0.0574512742459774 255 255 255
10.051323890686035 5.501878261566162 0.07021307945251465 255 255 255
10.010912895202637 5.389706611633301 -0.10227961093187332 255 255 255
9.912270545959473 5.423835754394531 -0.1662938892841339 255 255 255
10.081367492675781 5.5889763832092285 -0.02839355356991291 255 255 255
10.08993148803711 5.598923206329346 -0.02250012941658497 255 255 255
10.091516494750977 5.7681379318237305 -0.04802893474698067 255 255 255
9.794610023498535 5.614290714263916 -0.043886300176382065 255 255 255
9.813437461853027 5.5182271003723145 -0.029015541076660156 255 255 255
9.808917999267578 5.493956565856934 -0.01562948152422905 255 255 255
9.805171012878418 5.6730570793151855 -0.02273743785917759 255 255 255
16.04524040222168 9.316788673400879 -0.1683228313922882 255 255 255
16.10477638244629 9.411944389343262 -0.20481333136558533 255 255 255
16.12947654724121 9.374588966369629 -0.2880214750766754 255 255 255
16.087736129760742 9.610177040100098 -0.24604745209217072 255 255 255
10.166110038757324 6.071378707885742 0.026930958032608032 255 255 255
16.22660255432129 9.76146411895752 -0.19186846911907196 255 255 255
10.258512496948242 6.168442249298096 -0.06820414960384369 255 255 255
10.212444305419922 6.216996669769287 -0.0435308963060379 255 255 255
16.301851272583008 9.993327140808105 -0.21224342286586761 255 255 255
10.148259162902832 6.258532524108887 0.022822031751275063 255 255 255
16.318649291992188 10.087990760803223 -0.22714687883853912 255 255 255
16.25857162475586 10.215357780456543 -0.1813998967409134 255 255 255
16.372844696044922 10.313945770263672 -0.13635632395744324 255 255 255
16.348955154418945 10.483986854553223 -0.1959019899368286 255 255 255
16.38709831237793 10.468794822692871 -0.18740993738174438 255 255 255
16.447938919067383 10.560872077941895 -0.18340852856636047 255 255 255
16.186384201049805 10.516180992126465 -0.20279282331466675 255 255 255
16.105300903320312 10.4892578125 -0.10996843129396439 255 255 255
6.7696123123168945 4.600681781768799 -0.07713467627763748 255 255 255
6.803486347198486 4.57723331451416 -0.03060326725244522 255 255 255
6.741624355316162 4.543889999389648 0.05826837196946144 255 255 255
6.832919120788574 4.616811752319336 0.079438716173172 255 255 255
6.6843085289001465 4.571029186248779 0.023889394477009773 255 255 255
6.72768497467041 4.6024017333984375 -0.09503777325153351 255 255 255
6.788444995880127 4.555440425872803 0.1153043657541275 255 255 255
6.628637790679932 4.591856002807617 0.03778499364852905 255 255 255
6.612048149108887 4.609351634979248 0.03604235500097275 255 255 255
6.588740348815918 4.5799078941345215 0.045203108340501785 255 255 255
6.549461841583252 4.632552623748779 0.13887156546115875 255 255 255
6.576106071472168 4.668017864227295 0.04414953291416168 255 255 255
6.643296241760254 4.613101959228516 0.013410747051239014 255 255 255
6.477419853210449 4.714481353759766 0.0017914286581799388 255 255 255
6.51319694519043 4.741568565368652 0.007562684826552868 255 255 255
6.4199347496032715 4.741607189178467 0.00829146709293127 255 255 255
6.483372688293457 4.6930742263793945 -0.030340107157826424 255 255 255
6.514327526092529 4.750910758972168 -0.031341712921857834 255 255 255
6.471922874450684 4.732651233673096 0.012085245922207832 255 255 255
6.393317222595215 4.755964279174805 0.06850633770227432 255 255 255
6.291748523712158 4.772699356079102 -0.017302921041846275 255 255 255
6.32766580581665 4.691783428192139 0.007388751953840256 255 255 255
6.311750888824463 4.781315326690674 0.08941928297281265 255 255 255
6.296207904815674 4.786037445068359 0.07959438115358353 255 255 255
6.227720737457275 4.8255414962768555 0.006317161023616791 255 255 255
6.216330051422119 4.752879619598389 0.08832959085702896 255 255 255
6.188834190368652 4.838479042053223 0.037271883338689804 255 255 255
6.2575554847717285 4.93376350402832 0.08249582350254059 255 255 255
6.282261848449707 5.033615589141846 0.09483377635478973 255 255 255
6.40397310256958 5.04577112197876 0.0403662733733654 255 255 255
6.375180244445801 5.149543285369873 0.0710872933268547 255 255 255
6.514643669128418 5.173697471618652 0.08193772286176682 255 255 255
6.470105171203613 5.217960834503174 0.020259980112314224 255 255 255
6.561050891876221 5.432417869567871 -0.016731102019548416 255 255 255
7.779936790466309 6.319606781005859 0.039054594933986664 255 255 255
7.790984630584717 6.315827369689941 -0.05457384139299393 255 255 255
7.75133752822876 6.367069244384766 -0.010968426242470741 255 255 255
6.13694953918457 5.123316287994385 0.03320874646306038 255 255 255
7.4346394538879395 6.268792152404785 -0.09765017032623291 255 255 255
5.931447505950928 5.00268030166626 0.11585065722465515 255 255 255
5.890364170074463 4.929480075836182 0.04258947819471359 255 255 255
5.824843406677246 4.972901344299316 0.09095962345600128 255 255 255
5.787481784820557 4.97274112701416 0.11161211878061295 255 255 255
5.717398643493652 4.952386379241943 0.14009280502796173 255 255 255
5.67600679397583 4.842484474182129 0.06063784658908844 255 255 255
9.758027076721191 -7.542749881744385 -0.06314077228307724 255 255 255
9.799192428588867 -7.626296520233154 -0.10347820073366165 255 255 255
11.3411865234375 -8.707291603088379 -0.10045605152845383 255 255 255
10.810052871704102 -8.392997741699219 0.01459202729165554 255 255 255
10.762735366821289 -8.314447402954102 -0.06928905099630356 255 255 255
10.862664222717285 -8.385272979736328 -0.0566064715385437 255 255 255
10.825078010559082 -8.2764892578125 -0.04353869706392288 255 255 255
10.808706283569336 -8.07591438293457 -0.07048354297876358 255 255 255
10.162029266357422 -7.5542473793029785 -0.08827035874128342 255 255 255
10.813719749450684 -8.063572883605957 -0.04360882192850113 255 255 255
10.033238410949707 -7.592130184173584 -0.06654521077871323 255 255 255
10.279924392700195 -7.546502113342285 0.0005125158349983394 255 255 255
10.025615692138672 -7.335458755493164 -0.06136928126215935 255 255 255
9.915431022644043 -7.231842041015625 -0.06294842809438705 255 255 255
9.872110366821289 -7.049044132232666 -0.03548973798751831 255 255 255
9.951887130737305 -7.020623683929443 -0.023491282016038895 255 255 255
9.904356002807617 -7.048567771911621 -0.07557200640439987 255 255 255
10.001293182373047 -7.086205959320068 -0.07140194624662399 255 255 255
10.359025001525879 -7.413945198059082 -0.03935723006725311 255 255 255
10.15416145324707 -7.104982376098633 -0.028796251863241196 255 255 255
10.273512840270996 -6.988032341003418 -0.12581004202365875 255 255 255
10.212394714355469 -7.085714340209961 -0.017202360555529594 255 255 255
10.268229484558105 -6.99775505065918 -0.015254120342433453 255 255 255
10.315486907958984 -7.0601372718811035 -0.005546608008444309 255 255 255
11.145350456237793 -7.601841926574707 -0.08457889407873154 255 255 255
10.426490783691406 -6.967928886413574 0.08698683232069016 255 255 255
10.492159843444824 -6.91688871383667 -0.04963354021310806 255 255 255
10.294461250305176 -6.964412689208984 -0.07456895709037781 255 255 255
10.38587760925293 -6.878455638885498 -0.11006539314985275 255 255 255
11.425742149353027 -7.465351581573486 -0.07112973928451538 255 255 255
11.651649475097656 -7.57986307144165 -0.04631791636347771 255 255 255
11.568048477172852 -7.541970729827881 -0.13694491982460022 255 255 255
11.669947624206543 -7.540434837341309 -0.20174945890903473 255 255 255
11.715771675109863 -7.494075775146484 -0.04648919031023979 255 255 255
11.819911003112793 -7.574882507324219 -0.09567273408174515 255 255 255
11.663933753967285 -7.449270725250244 -0.08712936192750931 255 255 255
11.855598449707031 -7.480538845062256 -0.04673870652914047 255 255 255
12.141932487487793 -7.600244045257568 -0.0423474945127964 255 255 255
12.191173553466797 -7.582351207733154 -0.1374007910490036 255 255 255
14.335092544555664 -8.828559875488281 -0.18665854632854462 255 255 255
14.658647537231445 -8.958943367004395 -0.13805153965950012 255 255 255
14.435656547546387 -8.799530029296875 -0.21734242141246796 255 255 255
15.160842895507812 -9.339326858520508 -0.13573765754699707 255 255 255
14.672524452209473 -8.892254829406738 -0.25586652755737305 255 255 255
14.755782127380371 -8.891267776489258 -0.13928696513175964 255 255 255
14.671740531921387 -8.655051231384277 -0.1694866567850113 255 255 255
14.829641342163086 -8.737756729125977 -0.16752147674560547 255 255 255
14.970071792602539 -8.748477935791016 -0.11943521350622177 255 255 255
14.884281158447266 -8.55488109588623 -0.19991493225097656 255 255 255
14.831534385681152 -8.578837394714355 -0.17947371304035187 255 255 255
15.194564819335938 -8.757204055786133 -0.1643976867198944 255 255 255
16.092849731445312 -9.055429458618164 -0.2392760068178177 255 255 255
15.866558074951172 -8.882533073425293 -0.31364336609840393 255 255 255
16.277250289916992 -9.102058410644531 -0.145127534866333 255 255 255
16.224655151367188 -9.013059616088867 -0.17804524302482605 255 255 255
16.22657585144043 -8.911656379699707 -0.1476307064294815 255 255 255
16.31844139099121 -8.967774391174316 -0.16738928854465485 255 255 255
17.01264190673828 -9.114758491516113 -0.18128253519535065 255 255 255
18.55452537536621 -10.007030487060547 -0.2091730386018753 255 255 255
18.547531127929688 -9.961773872375488 -0.3292827010154724 255 255 255
18.653581619262695 -9.924524307250977 -0.23774254322052002 255 255 255
19.04048728942871 -10.042956352233887 -0.15305429697036743 255 255 255
19.158132553100586 -9.99352741241455 -0.30480653047561646 255 255 255
20.934450149536133 -10.832913398742676 -0.264163613319397 255 255 255
21.01127052307129 -10.908071517944336 -0.3091300129890442 255 255 255
21.192005157470703 -10.856022834777832 -0.23241212964057922 255 255 255
20.575281143188477 -10.436301231384277 -0.37417668104171753 255 255 255
20.381772994995117 -10.301456451416016 -0.2655731737613678 255 255 255
19.472551345825195 -9.758691787719727 -0.22478872537612915 255 255 255
22.146726608276367 -11.023154258728027 -0.314276784658432 255 255 255
21.705923080444336 -10.680241584777832 -0.37091079354286194 255 255 255
21.776124954223633 -10.59974479675293 -0.369223028421402 255 255 255
22.386707305908203 -10.81031322479248 -0.25585347414016724 255 255 255
22.726125717163086 -11.051569938659668 -0.2637263834476471 255 255 255
23.15080451965332 -11.06564712524414 -0.45541912317276 255 255 255
23.30324935913086 -11.163752555847168 -0.3044160008430481 255 255 255
24.041465759277344 -11.375592231750488 -0.34259605407714844 255 255 255
23.679128646850586 -11.064971923828125 -0.3793777525424957 255 255 255
24.96605110168457 -11.591409683227539 -0.2991815209388733 255 255 255
25.441774368286133 -11.687429428100586 -0.4157344698905945 255 255 255
25.248382568359375 -11.4547758102417 -0.3841547667980194 255 255 255
25.476728439331055 -11.52845573425293 -0.4150941073894501 255 255 255
25.593896865844727 -11.498470306396484 -0.371237576007843 255 255 255
27.740190505981445 -12.341789245605469 -0.4835623502731323 255 255 255
28.229448318481445 -12.542767524719238 -0.418201744556427 255 255 255
28.948684692382812 -12.72113037109375 -0.50553959608078 255 255 255
29.59577178955078 -12.98458194732666 -0.5025562644004822 255 255 255
30.1968994140625 -13.129751205444336 -0.518511176109314 255 255 255
30.382537841796875 -12.998886108398438 -0.4786287546157837 255 255 255
33.795021057128906 -14.255962371826172 -0.5350773334503174 255 255 255
33.764442443847656 -14.295225143432617 -0.575107753276825 255 255 255
33.870384216308594 -14.108904838562012 -0.5040078163146973 255 255 255
34.41073989868164 -14.278129577636719 -0.5121510624885559 255 255 255
34.38396453857422 -14.191059112548828 -0.5339377522468567 255 255 255
19.44916534423828 -7.633490562438965 -0.2331019937992096 255 255 255
19.45285415649414 -7.584695339202881 -0.29426437616348267 255 255 255
19.52169418334961 -7.53965425491333 -0.28218525648117065 255 255 255
19.529775619506836 -7.460474967956543 -0.21640647947788239 255 255 255
19.52303695678711 -7.361313343048096 -0.28740304708480835 255 255 255
19.466598510742188 -7.354787826538086 -0.2357035130262375 255 255 255
19.4486026763916 -7.333217144012451 -0.18164677917957306 255 255 255
19.53382110595703 -7.232943534851074 -0.2672809362411499 255 255 255
19.652482986450195 -7.213282108306885 -0.19806383550167084 255 255 255
24.267253875732422 -8.518534660339355 -0.44074028730392456 255 255 255
24.347606658935547 -8.629672050476074 -0.293591171503067 255 255 255
24.58750343322754 -8.568729400634766 -0.4387589395046234 255 255 255
54.22865676879883 -18.612112045288086 -1.0208065509796143 255 255 255
54.22235107421875 -18.07771873474121 -1.0267542600631714 255 255 255
54.20543670654297 -17.929357528686523 -1.0021741390228271 255 255 255
54.26966857910156 -17.667545318603516 -1.0019922256469727 255 255 255
54.46221923828125 -17.57012176513672 -0.999577522277832 255 255 255
54.499454498291016 -17.411117553710938 -0.9799962043762207 255 255 255
54.680999755859375 -17.226314544677734 -0.9832578897476196 255 255 255
54.23100662231445 -14.606586456298828 -1.0743639469146729 255 255 255
54.198001861572266 -14.38563060760498 -0.9768883585929871 255 255 255
59.9484977722168 -15.369239807128906 -1.111259937286377 255 255 255
59.226539611816406 -14.211691856384277 -1.0654419660568237 255 255 255
57.86288070678711 -13.562215805053711 -1.116225004196167 255 255 255
57.753936767578125 -13.387874603271484 -0.9970356822013855 255 255 255
39.46981430053711 -8.66873836517334 -0.5113112330436707 255 255 255
39.483985900878906 -8.495655059814453 -0.6269103288650513 255 255 255
39.67422103881836 -8.503438949584961 -0.6215450763702393 255 255 255
39.335445404052734 -8.250044822692871 -0.6545612215995789 255 255 255
32.14374542236328 -6.444461822509766 -0.5546020865440369 255 255 255
32.3898811340332 -6.333151340484619 -0.46875911951065063 255 255 255
32.09316635131836 -6.153908729553223 -0.5547965168952942 255 255 255
32.01198196411133 -5.798450469970703 -0.431350439786911 255 255 255
31.998716354370117 -5.815789222717285 -0.584320068359375 255 255 255
32.02803039550781 -5.665054798126221 -0.4370253086090088 255 255 255
32.15585708618164 -5.452122211456299 -0.5805261135101318 255 255 255
32.26655578613281 -5.298869609832764 -0.43064844608306885 255 255 255
32.34646987915039 -5.231806755065918 -0.5306087732315063 255 255 255
32.194400787353516 -4.986850738525391 -0.4818778932094574 255 255 255
32.46637725830078 -5.008647918701172 -0.5301807522773743 255 255 255
40.554378509521484 -5.925237655639648 -0.7641029953956604 255 255 255
39.92364501953125 -5.716562747955322 -0.6221951842308044 255 255 255
39.29291534423828 -5.467594623565674 -0.5995382070541382 255 255 255
38.482994079589844 -5.264138698577881 -0.6569626331329346 255 255 255
37.728538513183594 -5.180473327636719 -0.6791135668754578 255 255 255
36.95250701904297 -4.894828796386719 -0.5808820724487305 255 255 255
36.367916107177734 -4.6729865074157715 -0.5225945711135864 255 255 255
35.80517578125 -4.528454303741455 -0.498218297958374 255 255 255
35.28193664550781 -4.355658531188965 -0.5311682224273682 255 255 255
35.099124908447266 -4.161925315856934 -0.4860178828239441 255 255 255
34.23456954956055 -4.1247944831848145 -0.497712641954422 255 255 255
34.137550354003906 -3.979499340057373 -0.5393189787864685 255 255 255
34.1648063659668 -3.777798652648926 -0.39951667189598083 255 255 255
33.97628402709961 -3.7195193767547607 -0.5307031869888306 255 255 255
33.86619186401367 -3.5842983722686768 -0.5662670731544495 255 255 255
33.47710037231445 -3.378753423690796 -0.5918024778366089 255 255 255
33.048057556152344 -3.2726664543151855 -0.4748660922050476 255 255 255
30.876079559326172 -2.9648218154907227 -0.44485270977020264 255 255 255
30.089689254760742 -2.7763521671295166 -0.38115042448043823 255 255 255
29.8446044921875 -2.70382022857666 -0.41446030139923096 255 255 255
28.487539291381836 -2.4210336208343506 -0.40502801537513733 255 255 255
28.4189395904541 -2.275311231613159 -0.3547881543636322 255 255 255
27.885292053222656 -2.1164710521698 -0.4471628963947296 255 255 255
27.705768585205078 -2.0437278747558594 -0.3374279737472534 255 255 255
27.735069274902344 -2.040605068206787 -0.4157460629940033 255 255 255
27.719038009643555 -1.9211955070495605 -0.3889243006706238 255 255 255
27.736328125 -1.7472600936889648 -0.37442904710769653 255 255 255
27.74030113220215 -1.7352782487869263 -0.3984706699848175 255 255 255
27.833032608032227 -1.5169281959533691 -0.38882386684417725 255 255 255
27.723031997680664 -1.6634012460708618 -0.4676949381828308 255 255 255
27.781801223754883 -1.5193804502487183 -0.4591112732887268 255 255 255
14.517687797546387 -0.6956987977027893 -0.06797375530004501 255 255 255
14.460735321044922 -0.7671018838882446 -0.16182808578014374 255 255 255
14.347735404968262 -0.6112184524536133 -0.03346230089664459 255 255 255
14.385587692260742 -0.6055898070335388 0.019837498664855957 255 255 255
14.241059303283691 -0.604872465133667 -0.12819735705852509 255 255 255
14.240290641784668 -0.4862571954727173 -0.12955008447170258 255 255 255
14.182661056518555 -0.458281546831131 0.018300490453839302 255 255 255
14.123702049255371 -0.4344583749771118 -0.10887818038463593 255 255 255
14.139397621154785 -0.30555397272109985 -0.10780838131904602 255 255 255
14.123649597167969 -0.29224860668182373 -0.14878468215465546 255 255 255
14.039082527160645 -0.29366809129714966 -0.05456544831395149 255 255 255
14.08540153503418 -0.16273172199726105 -0.058065712451934814 255 255 255
14.039097785949707 -0.19470256567001343 0.0026409674901515245 255 255 255
14.04560661315918 -0.1967088282108307 -0.04623961076140404 255 255 255
13.998556137084961 -0.1254792958498001 -0.06584253162145615 255 255 255
14.034626007080078 -0.07954826205968857 -0.09186848253011703 255 255 255
14.000596046447754 -0.0412558950483799 -0.12858407199382782 255 255 255
13.976638793945312 0.078731968998909 -0.14516237378120422 255 255 255
14.009210586547852 -0.01931127719581127 -0.08065630495548248 255 255 255
20.78380012512207 0.07503177970647812 -0.21567921340465546 255 255 255
20.744565963745117 0.041273776441812515 -0.3005906641483307 255 255 255
20.64059829711914 0.2587965428829193 -0.306434690952301 255 255 255
20.612506866455078 0.302560955286026 -0.19555805623531342 255 255 255
20.509580612182617 0.347225159406662 -0.16471907496452332 255 255 255
22.99984359741211 0.47297391295433044 -0.32399147748947144 255 255 255
22.839338302612305 0.5339062809944153 -0.2867978811264038 255 255 255
22.855436325073242 0.6292532682418823 -0.2787686586380005 255 255 255
21.263391494750977 0.6856163740158081 -0.2667911648750305 255 255 255
23.184419631958008 0.7237935066223145 -0.3745182156562805 255 255 255
18.786495208740234 0.6116007566452026 -0.2705230712890625 255 255 255
18.774513244628906 0.7098386287689209 -0.278119295835495 255 255 255
18.561674118041992 0.8425907492637634 -0.24210910499095917 255 255 255
18.55880355834961 0.7860878109931946 -0.24944889545440674 255 255 255
18.57162094116211 0.8362880945205688 -0.2794003486633301 255 255 255
18.49599266052246 1.065370798110962 -0.2977274954319 255 255 255
18.463266372680664 1.0006002187728882 -0.27450400590896606 255 255 255
18.538494110107422 0.9617998600006104 -0.29263776540756226 255 255 255
21.290748596191406 1.2821638584136963 -0.32077959179878235 255 255 255
21.3916015625 1.2504817247390747 -0.40222737193107605 255 255 255
21.708518981933594 1.3713164329528809 -0.3822178244590759 255 255 255
21.306913375854492 1.4004067182540894 -0.4002155661582947 255 255 255
21.395750045776367 1.5751349925994873 -0.291170209646225 255 255 255
21.484086990356445 1.5411726236343384 -0.42846694588661194 255 255 255
17.16009521484375 1.3858927488327026 -0.288300096988678 255 255 255
17.198835372924805 1.391120195388794 -0.27283838391304016 255 255 255
17.036869049072266 1.475030779838562 -0.23943118751049042 255 255 255
16.724590301513672 1.4818729162216187 -0.1830976903438568 255 255 255
16.721529006958008 1.4081697463989258 -0.27564653754234314 255 255 255
16.602277755737305 1.5156358480453491 -0.255077064037323 255 255 255
23.3095645904541 2.1692163944244385 -0.4360105097293854 255 255 255
18.514616012573242 1.8019042015075684 -0.24051916599273682 255 255 255
18.59480094909668 1.846997857093811 -0.2892434597015381 255 255 255
18.405078887939453 1.9120641946792603 -0.24762845039367676 255 255 255
18.339494705200195 1.8951035737991333 -0.3778168857097626 255 255 255
18.576780319213867 2.0466184616088867 -0.3098647892475128 255 255 255
17.9075984954834 2.0935299396514893 -0.2940884828567505 255 255 255
17.874116897583008 2.152243137359619 -0.2739126682281494 255 255 255
17.837182998657227 2.1255288124084473 -0.28562334179878235 255 255 255
17.726348876953125 2.2725653648376465 -0.1954641491174698 255 255 255
17.798269271850586 2.183011770248413 -0.26803210377693176 255 255 255
17.729999542236328 2.32285213470459 -0.22553499042987823 255 255 255
17.920007705688477 2.3607137203216553 -0.33493202924728394 255 255 255
17.94698143005371 2.4561853408813477 -0.30675268173217773 255 255 255
18.07671356201172 2.489199638366699 -0.23383675515651703 255 255 255
18.027450561523438 2.597778558731079 -0.3237799406051636 255 255 255
17.95535659790039 2.5077104568481445 -0.2779548466205597 255 255 255
17.699918746948242 2.5808281898498535 -0.31416526436805725 255 255 255
17.623397827148438 2.783313512802124 -0.306078165769577 255 255 255
17.46919822692871 2.652803421020508 -0.2239365130662918 255 255 255
17.414016723632812 2.7173542976379395 -0.23091955482959747 255 255 255
17.498620986938477 2.765059232711792 -0.18086878955364227 255 255 255
17.612773895263672 2.8122050762176514 -0.320937842130661 255 255 255
17.553373336791992 2.9213409423828125 -0.21618017554283142 255 255 255
17.6173095703125 2.9885897636413574 -0.26235151290893555 255 255 255
17.042177200317383 2.9436116218566895 -0.25514617562294006 255 255 255
17.09269905090332 3.029083251953125 -0.20265334844589233 255 255 255
17.34939193725586 3.0581586360931396 -0.3443043529987335 255 255 255
17.507593154907227 3.05308198928833 -0.15580740571022034 255 255 255
17.28373908996582 3.139099359512329 -0.29722318053245544 255 255 255
18.077817916870117 3.4161431789398193 -0.2482157051563263 255 255 255
17.905807495117188 3.4594686031341553 -0.27601534128189087 255 255 255
17.36145782470703 3.4375264644622803 -0.23101790249347687 255 255 255
17.291908264160156 3.3193325996398926 -0.19470654428005219 255 255 255
17.302370071411133 3.372694492340088 -0.21272480487823486 255 255 255
17.294906616210938 3.4773876667022705 -0.15734826028347015 255 255 255
17.11557960510254 3.4722931385040283 -0.14639104902744293 255 255 255
17.04157257080078 3.4693422317504883 -0.1708143651485443 255 255 255
16.876667022705078 3.584343671798706 -0.2651592195034027 255 255 255
17.555133819580078 3.788020133972168 -0.26559022068977356 255 255 255
17.746553421020508 4.019516944885254 -0.23471811413764954 255 255 255
17.750019073486328 3.9293060302734375 -0.2587278187274933 255 255 255
17.810325622558594 3.945815324783325 -0.22826753556728363 255 255 255
17.25201988220215 3.873814582824707 -0.2251560539007187 255 255 255
15.27631664276123 3.4531590938568115 -0.25912055373191833 255 255 255
15.128509521484375 3.438601493835449 -0.16370053589344025 255 255 255
15.14620304107666 3.61395001411438 -0.1486678570508957 255 255 255
21.638229370117188 5.143184185028076 -0.34011217951774597 255 255 255
21.532939910888672 5.231375694274902 -0.37209612131118774 255 255 255
15.277946472167969 3.7778074741363525 -0.29732611775398254 255 255 255
15.173892974853516 3.7709109783172607 -0.14079461991786957 255 255 255
20.675018310546875 5.210041522979736 -0.279924213886261 255 255 255
20.55193519592285 5.223170280456543 -0.4029165208339691 255 255 255
20.398094177246094 5.421815395355225 -0.46524208784103394 255 255 255
20.36358642578125 5.387757778167725 -0.2830066978931427 255 255 255
20.224563598632812 5.413547992706299 -0.35676249861717224 255 255 255
20.076234817504883 5.394202709197998 -0.36212220788002014 255 255 255
20.035327911376953 5.4830241203308105 -0.27197057008743286 255 255 255
19.882606506347656 5.573511123657227 -0.37772101163864136 255 255 255
19.834257125854492 5.534902095794678 -0.3040325343608856 255 255 255
19.638078689575195 5.4994354248046875 -0.30983230471611023 255 255 255
19.51793098449707 5.4998250007629395 -0.29674291610717773 255 255 255
19.4122314453125 5.648447513580322 -0.3849222958087921 255 255 255
19.293792724609375 5.6712446212768555 -0.27921050786972046 255 255 255
19.213850021362305 5.631518840789795 -0.3360570967197418 255 255 255
19.11252212524414 5.631596088409424 -0.3759641647338867 255 255 255
19.00768280029297 5.765390872955322 -0.41357147693634033 255 255 255
18.955890655517578 5.788255214691162 -0.3800205886363983 255 255 255
18.803987503051758 5.761523723602295 -0.2915813624858856 255 255 255
18.716999053955078 5.86182165145874 -0.27316832542419434 255 255 255
18.671152114868164 5.920979022979736 -0.317376047372818 255 255 255
18.584808349609375 5.869345664978027 -0.3747093379497528 255 255 255
18.480430603027344 5.939028739929199 -0.16320589184761047 255 255 255
18.3363037109375 5.90921688079834 -0.28186219930648804 255 255 255
18.20173454284668 6.015951633453369 -0.31576716899871826 255 255 255
18.142093658447266 6.020355224609375 -0.3072354793548584 255 255 255
18.153076171875 6.045947074890137 -0.19491034746170044 255 255 255
18.03614044189453 6.089364051818848 -0.20610742270946503 255 255 255
17.85086441040039 6.033858299255371 -0.2727145850658417 255 255 255
17.736549377441406 6.068488121032715 -0.3433540165424347 255 255 255
13.160059928894043 4.500769138336182 -0.11181264370679855 255 255 255
13.107535362243652 4.646639347076416 -0.18709388375282288 255 255 255
13.342878341674805 4.780540943145752 -0.11675356328487396 255 255 255
13.306344032287598 4.705780506134033 -0.2208402454853058 255 255 255
13.224746704101562 4.799534797668457 -0.21970543265342712 255 255 255
13.292048454284668 4.861315727233887 -0.22330299019813538 255 255 255
13.344762802124023 4.858936786651611 -0.17256295680999756 255 255 255
13.372251510620117 4.9426774978637695 -0.1485830843448639 255 255 255
17.00558090209961 6.3350443840026855 -0.2503875195980072 255 255 255
10.73666000366211 3.9998693466186523 -0.14789769053459167 255 255 255
10.711627960205078 4.048741817474365 -0.1613074243068695 255 255 255
10.617608070373535 4.096964359283447 -0.18689125776290894 255 255 255
13.092352867126465 5.060680866241455 -0.11615722626447678 255 255 255
10.537347793579102 3.9571006298065186 -0.06704971194267273 255 255 255
10.377548217773438 4.078425407409668 -0.1315181404352188 255 255 255
10.386335372924805 4.000856876373291 -0.052108284085989 255 255 255
10.367193222045898 4.1361541748046875 -0.14390084147453308 255 255 255
10.24520206451416 4.194036960601807 -0.1391727477312088 255 255 255
10.255770683288574 4.183014869689941 -0.03419496491551399 255 255 255
10.171088218688965 4.084685325622559 -0.1336200088262558 255 255 255
9.89373779296875 4.045945644378662 -0.010760088451206684 255 255 255
9.932289123535156 4.2409796714782715 -0.1740841269493103 255 255 255
9.925705909729004 4.069925308227539 -0.11691257357597351 255 255 255
9.959413528442383 4.178097724914551 -0.031515393406152725 255 255 255
9.941530227661133 4.226100444793701 -0.07077020406723022 255 255 255
15.738375663757324 6.766409397125244 -0.3170304000377655 255 255 255
15.621060371398926 6.815474033355713 -0.28024622797966003 255 255 255
15.51894760131836 6.806509494781494 -0.29581162333488464 255 255 255
9.88426399230957 4.281375408172607 -0.09652801603078842 255 255 255
9.967184066772461 4.3576860427856445 -0.08342684060335159 255 255 255
9.888473510742188 4.380339622497559 -0.10126567631959915 255 255 255
15.24245548248291 6.932562351226807 -0.2516418695449829 255 255 255
12.44096565246582 5.736607074737549 -0.2790222764015198 255 255 255
15.27403736114502 6.913955211639404 -0.2741944491863251 255 255 255
15.324557304382324 6.915698528289795 -0.30736103653907776 255 255 255
15.308831214904785 7.077579498291016 -0.2687739431858063 255 255 255
15.416523933410645 7.1424055099487305 -0.2991894781589508 255 255 255
15.395756721496582 7.2001214027404785 -0.2565818727016449 255 255 255
15.316726684570312 7.342470645904541 -0.1980993151664734 255 255 255
15.399040222167969 7.362857341766357 -0.17574864625930786 255 255 255
15.321802139282227 7.46677303314209 -0.2443699687719345 255 255 255
15.26972770690918 7.412945747375488 -0.26870548725128174 255 255 255
15.458824157714844 7.428275108337402 -0.25677019357681274 255 255 255
15.405945777893066 7.633150100708008 -0.3078491687774658 255 255 255
15.583373069763184 7.6742777824401855 -0.2767329216003418 255 255 255
15.501185417175293 7.71899938583374 -0.257409930229187 255 255 255
15.555384635925293 7.916331768035889 -0.22907768189907074 255 255 255
15.504426002502441 7.972740650177002 -0.3186562657356262 255 255 255
15.612218856811523 8.020727157592773 -0.2607196271419525 255 255 255
15.605353355407715 8.075737953186035 -0.2679658532142639 255 255 255
15.60486888885498 8.034590721130371 -0.2056046575307846 255 255 255
15.698418617248535 8.105419158935547 -0.28782522678375244 255 255 255
15.651519775390625 8.267812728881836 -0.31927886605262756 255 255 255
15.728961944580078 8.40018081665039 -0.30586478114128113 255 255 255
10.429159164428711 5.526909351348877 -0.11069166660308838 255 255 255
10.1578369140625 5.378304958343506 -0.04450596123933792 255 255 255
10.176558494567871 5.496531009674072 -0.11090979725122452 255 255 255
10.096491813659668 5.535953044891357 -0.20605114102363586 255 255 255
10.104801177978516 5.537177562713623 -0.040817901492118835 255 255 255
9.99638557434082 5.523141384124756 -0.08058419078588486 255 255 255
10.103514671325684 5.632630825042725 -0.1452847421169281 255 255 255
10.188604354858398 5.66719388961792 -0.12097571790218353 255 255 255
10.101947784423828 5.7400078773498535 -0.06581827998161316 255 255 255
9.879239082336426 5.636951446533203 -0.07354476302862167 255 255 255
9.916975975036621 5.714097499847412 -0.09845590591430664 255 255 255
9.80660629272461 5.683228969573975 -0.08025260269641876 255 255 255
9.707109451293945 5.689884662628174 -0.1400126963853836 255 255 255
9.811742782592773 5.784649848937988 -0.09731121361255646 255 255 255
13.774792671203613 8.078438758850098 -0.23855119943618774 255 255 255
13.853057861328125 8.037684440612793 -0.2625686526298523 255 255 255
14.056055068969727 8.31132984161377 -0.1955348551273346 255 255 255
14.27847957611084 8.522822380065918 -0.08956509083509445 255 255 255
16.201705932617188 9.797199249267578 -0.25034254789352417 255 255 255
16.29668617248535 9.884079933166504 -0.2993553876876831 255 255 255
16.249591827392578 9.866674423217773 -0.22914429008960724 255 255 255
16.239049911499023 9.976069450378418 -0.22768479585647583 255 255 255
16.321624755859375 10.095587730407715 -0.28301480412483215 255 255 255
16.333099365234375 10.128143310546875 -0.2791815400123596 255 255 255
16.323545455932617 10.214764595031738 -0.3333810865879059 255 255 255
16.376134872436523 10.276884078979492 -0.26593032479286194 255 255 255
16.3268985748291 10.396379470825195 -0.32737672328948975 255 255 255
7.322836399078369 4.712367534637451 -0.10993874073028564 255 255 255
16.39353370666504 10.549864768981934 -0.2744329571723938 255 255 255
7.054084300994873 4.567428112030029 -0.03405238687992096 255 255 255
6.893557548522949 4.359431743621826 -0.02683829888701439 255 255 255
7.136847972869873 4.6844940185546875 0.035655368119478226 255 255 255
7.159305095672607 4.732152462005615 -0.03902215510606766 255 255 255
7.021571636199951 4.606998920440674 0.002259097993373871 255 255 255
7.095914363861084 4.7530694007873535 -0.0360228531062603 255 255 255
6.9713454246521 4.7392258644104 0.06906794756650925 255 255 255
7.058660984039307 4.766303062438965 -0.01051893550902605 255 255 255
6.996667385101318 4.673107147216797 -0.04845038428902626 255 255 255
6.831981658935547 4.636746883392334 0.0015634159790351987 255 255 255
6.75506591796875 4.6748833656311035 0.028722263872623444 255 255 255
6.737540245056152 4.673983097076416 -0.07399299740791321 255 255 255
6.642480850219727 4.644289970397949 0.041882626712322235 255 255 255
6.634627819061279 4.618950843811035 -0.02360677346587181 255 255 255
6.634889125823975 4.722250461578369 -0.08128608763217926 255 255 255
6.57902193069458 4.6536359786987305 -0.020149720832705498 255 255 255
6.726975917816162 4.773099422454834 0.0011781922075897455 255 255 255
6.582040786743164 4.783036708831787 0.10361521691083908 255 255 255
6.63750696182251 4.739509105682373 -0.041599322110414505 255 255 255
6.592869281768799 4.7874956130981445 0.035950012505054474 255 255 255
6.504344463348389 4.760766506195068 -0.0011452969629317522 255 255 255
6.391060829162598 4.761449813842773 -0.05504462122917175 255 255 255
6.380917549133301 4.766199588775635 -0.13237673044204712 255 255 255
6.427433013916016 4.737419128417969 0.08885177969932556 255 255 255
6.4216508865356445 4.756216526031494 0.023578161373734474 255 255 255
6.294166564941406 4.7517242431640625 0.007069692946970463 255 255 255
6.2853288650512695 4.834668159484863 -0.06738870590925217 255 255 255
6.548485279083252 4.952436447143555 -0.03688793629407883 255 255 255
6.463821887969971 4.898139953613281 0.0689791589975357 255 255 255
6.193402290344238 4.809453010559082 0.07726972550153732 255 255 255
6.402457237243652 4.846935272216797 -0.007283302024006844 255 255 255
6.325859546661377 4.975843906402588 -0.13071291148662567 255 255 255
6.365349769592285 4.925272464752197 0.09423668682575226 255 255 255
6.319459438323975 5.111354827880859 -0.08043023198843002 255 255 255
6.451190948486328 4.972836494445801 -0.053484685719013214 255 255 255
6.392422199249268 5.048361301422119 -0.06329867243766785 255 255 255
8.06627082824707 6.61880350112915 -0.08992563188076019 255 255 255
6.243212699890137 5.080644607543945 -0.028042059391736984 255 255 255
6.595961093902588 5.499546051025391 -0.026535363867878914 255 255 255
7.743086338043213 6.281909465789795 -0.05940674990415573 255 255 255
7.715315341949463 6.397564888000488 0.01618998683989048 255 255 255
7.713703155517578 6.550922393798828 -0.11806325614452362 255 255 255
7.750195026397705 6.538019180297852 -0.07862816751003265 255 255 255
7.532973289489746 6.328441619873047 -0.01887434534728527 255 255 255
5.9728827476501465 4.922357082366943 -0.07186771929264069 255 255 255
5.994797229766846 5.055858612060547 0.022434227168560028 255 255 255
5.772566318511963 5.003360748291016 0.010995284654200077 255 255 255
5.68865442276001 4.971602916717529 -0.014815806411206722 255 255 255
5.700809955596924 4.968754291534424 -0.012565437704324722 255 255 255
5.768316745758057 5.094597816467285 -0.06057131662964821 255 255 255
9.834893226623535 -7.774587631225586 -0.07213296741247177 255 255 255
9.794595718383789 -7.694763660430908 -0.1739947646856308 255 255 255
11.531248092651367 -9.045611381530762 -0.21473869681358337 255 255 255
11.126675605773926 -8.51421070098877 -0.10562644898891449 255 255 255
10.966142654418945 -8.423797607421875 -0.08287112414836884 255 255 255
10.862360000610352 -8.292913436889648 -0.043872784823179245 255 255 255
10.822331428527832 -8.238045692443848 -0.17576460540294647 255 255 255
10.770813941955566 -8.187789916992188 -0.12811242043972015 255 255 255
10.765673637390137 -8.237812042236328 -0.19273130595684052 255 255 255
10.545724868774414 -7.886373996734619 -0.09389127045869827 255 255 255
10.376988410949707 -7.672756195068359 -0.13791832327842712 255 255 255
9.799277305603027 -7.200209140777588 -0.16727538406848907 255 255 255
9.804762840270996 -7.223428726196289 -0.10704156756401062 255 255 255
9.840888023376465 -7.186642646789551 0.0157927218824625 255 255 255
9.888978004455566 -7.183752059936523 -0.16271445155143738 255 255 255
10.070541381835938 -7.244844913482666 -0.17487621307373047 255 255 255
10.008550643920898 -7.157512664794922 -0.151809960603714 255 255 255
9.979752540588379 -7.046242713928223 -0.08879965543746948 255 255 255
10.190570831298828 -7.210803031921387 -0.04830954968929291 255 255 255
10.084718704223633 -7.06428861618042 -0.084084652364254 255 255 255
10.06251049041748 -6.997043132781982 -0.06338948011398315 255 255 255
10.22307014465332 -7.1960930824279785 -0.1509629189968109 255 255 255
10.469632148742676 -7.121105670928955 -0.13877421617507935 255 255 255
10.339930534362793 -7.064304828643799 -0.09662400931119919 255 255 255
10.359293937683105 -7.001870632171631 -0.09596772491931915 255 255 255
10.492342948913574 -7.05311918258667 -0.13577865064144135 255 255 255
10.461954116821289 -7.083572864532471 -0.0499303862452507 255 255 255
10.612041473388672 -7.163247108459473 -0.015857798978686333 255 255 255
11.580643653869629 -7.681634902954102 -0.23221823573112488 255 255 255
11.52490520477295 -7.7135491371154785 -0.2128061205148697 255 255 255
11.504101753234863 -7.477340221405029 -0.18862661719322205 255 255 255
11.479236602783203 -7.568104267120361 -0.21197129786014557 255 255 255
11.748291969299316 -7.586775302886963 -0.09120728075504303 255 255 255
11.947614669799805 -7.526556968688965 -0.17705625295639038 255 255 255
11.892817497253418 -7.616511344909668 -0.19028520584106445 255 255 255
12.102005004882812 -7.735016822814941 -0.13665683567523956 255 255 255
12.031811714172363 -7.636009693145752 -0.1934976875782013 255 255 255
12.263216972351074 -7.72421407699585 -0.1841554492712021 255 255 255
12.376667976379395 -7.629648208618164 -0.2256918102502823 255 255 255
15.317978858947754 -9.496797561645508 -0.23654702305793762 255 255 255
14.717371940612793 -9.114424705505371 -0.21157865226268768 255 255 255
14.433802604675293 -8.830409049987793 -0.26374661922454834 255 255 255
15.246631622314453 -9.270106315612793 -0.23966249823570251 255 255 255
14.471966743469238 -8.828832626342773 -0.24808333814144135 255 255 255
14.596929550170898 -8.719773292541504 -0.25810903310775757 255 255 255
14.750564575195312 -8.795735359191895 -0.29411351680755615 255 255 255
14.64751148223877 -8.534570693969727 -0.19650904834270477 255 255 255
14.869427680969238 -8.732540130615234 -0.2670898735523224 255 255 255
14.926005363464355 -8.73941421508789 -0.18133124709129333 255 255 255
14.85010814666748 -8.568612098693848 -0.27208560705184937 255 255 255
15.040109634399414 -8.661519050598145 -0.09831204265356064 255 255 255
15.076851844787598 -8.601227760314941 -0.23725339770317078 255 255 255
15.249313354492188 -8.656814575195312 -0.20560051500797272 255 255 255
15.354717254638672 -8.67516040802002 -0.2866705656051636 255 255 255
15.994268417358398 -8.872596740722656 -0.2710927724838257 255 255 255
16.010038375854492 -8.907737731933594 -0.24863162636756897 255 255 255
15.920479774475098 -8.741254806518555 -0.27615660429000854 255 255 255
16.2774600982666 -8.957690238952637 -0.28578829765319824 255 255 255
16.310771942138672 -8.887410163879395 -0.2603183686733246 255 255 255
16.84682846069336 -9.101494789123535 -0.18711671233177185 255 255 255
16.808116912841797 -9.160259246826172 -0.27636343240737915 255 255 255
16.954050064086914 -9.02695369720459 -0.2683473825454712 255 255 255
18.347585678100586 -9.680902481079102 -0.3034685552120209 255 255 255
18.64759063720703 -9.762207984924316 -0.29269081354141235 255 255 255
18.851682662963867 -9.86263370513916 -0.31166526675224304 255 255 255
19.0712833404541 -9.837803840637207 -0.42250022292137146 255 255 255
19.650558471679688 -10.065960884094238 -0.3762986660003662 255 255 255
19.843921661376953 -10.106070518493652 -0.3385094106197357 255 255 255
20.0341796875 -10.108244895935059 -0.39005711674690247 255 255 255
20.342161178588867 -10.208473205566406 -0.45147180557250977 255 255 255
19.359060287475586 -9.723204612731934 -0.36256349086761475 255 255 255
21.16094398498535 -10.570845603942871 -0.4168265759944916 255 255 255
21.502897262573242 -10.515880584716797 -0.42724645137786865 255 255 255
21.79736328125 -10.573863983154297 -0.41217535734176636 255 255 255
22.26454734802246 -10.731826782226562 -0.49128416180610657 255 255 255
22.584579467773438 -10.824847221374512 -0.4070778787136078 255 255 255
23.07356834411621 -10.997814178466797 -0.4728286862373352 255 255 255
23.527374267578125 -11.177480697631836 -0.5061203837394714 255 255 255
24.005783081054688 -11.307779312133789 -0.4593609571456909 255 255 255
24.348960876464844 -11.4194974899292 -0.4773537814617157 255 255 255
24.854032516479492 -11.563058853149414 -0.501013994216919 255 255 255
25.396589279174805 -11.667121887207031 -0.5343824625015259 255 255 255
25.82205581665039 -11.780498504638672 -0.532730221748352 255 255 255
26.435855865478516 -11.916415214538574 -0.5731032490730286 255 255 255
26.97853660583496 -12.177454948425293 -0.5708574056625366 255 255 255
27.49015998840332 -12.251458168029785 -0.5806441903114319 255 255 255
28.309207916259766 -12.499414443969727 -0.5645913481712341 255 255 255
28.87577247619629 -12.676280975341797 -0.5912324786186218 255 255 255
29.455368041992188 -12.700454711914062 -0.5599480271339417 255 255 255
30.321361541748047 -12.946221351623535 -0.644896388053894 255 255 255
30.326696395874023 -13.11526107788086 -0.6402108669281006 255 255 255
30.630569458007812 -12.912606239318848 -0.6888165473937988 255 255 255
33.83701705932617 -14.289785385131836 -0.7437533736228943 255 255 255
33.6939811706543 -14.105709075927734 -0.7575165629386902 255 255 255
34.1407585144043 -14.181662559509277 -0.6933010816574097 255 255 255
19.391712188720703 -8.002552032470703 -0.32738009095191956 255 255 255
19.33317756652832 -7.8810601234436035 -0.31853827834129333 255 255 255
19.374143600463867 -7.879353046417236 -0.37669000029563904 255 255 255
19.413103103637695 -7.792578220367432 -0.357714980840683 255 255 255
19.48162841796875 -7.665849685668945 -0.3458656966686249 255 255 255
19.513891220092773 -7.702019691467285 -0.339729905128479 255 255 255
20.179672241210938 -7.260421276092529 -0.29454877972602844 255 255 255
24.161766052246094 -8.387665748596191 -0.46375271677970886 255 255 255
24.607967376708984 -8.462224006652832 -0.4590039551258087 255 255 255
56.53499221801758 -18.933374404907227 -1.3882993459701538 255 255 255
56.65681076049805 -18.256454467773438 -1.3797683715820312 255 255 255
56.08014678955078 -17.87449836730957 -1.3097283840179443 255 255 255
55.229610443115234 -17.110015869140625 -1.3035963773727417 255 255 255
55.00994873046875 -16.76163673400879 -1.3057615756988525 255 255 255
54.80884552001953 -16.532756805419922 -1.2408074140548706 255 255 255
54.574363708496094 -16.19265365600586 -1.2879488468170166 255 255 255
