ply
format ascii 1.0
element vertex 690
property float x
property float y
property float z
property uchar red
property uchar green
property uchar blue
end_header
7.092721939086914 -1.5409196615219116 -1.7112419605255127 255 255 255
15.47442626953125 -5.44105863571167 -1.5631182193756104 255 255 255
3.5580079555511475 2.079702615737915 -0.0694320946931839 255 255 255
6.592692852020264 1.2571882009506226 -1.114983081817627 255 255 255
6.428128719329834 -2.3982372283935547 -1.6992573738098145 255 255 255
53.480377197265625 -15.345248222351074 0.7762875556945801 255 255 255
8.154167175292969 -8.01379680633545 -1.2381391525268555 255 255 255
10.605944633483887 4.937449932098389 0.25382596254348755 255 255 255
17.5245361328125 0.8456449508666992 0.4614441692829132 255 255 255
17.443084716796875 -8.067265510559082 -1.7179678678512573 255 255 255
9.716036796569824 -1.0315643548965454 -1.6217784881591797 255 255 255
18.938982009887695 -12.606030464172363 -0.27544063329696655 255 255 255
4.583881855010986 1.5943800210952759 -0.7128527760505676 255 255 255
12.809473991394043 -7.035961151123047 -1.6796634197235107 255 255 255
3.056525945663452 1.8792139291763306 -0.6786401271820068 255 255 255
8.922395706176758 -0.5391237139701843 -1.6257961988449097 255 255 255
23.601064682006836 -7.547826290130615 -1.4977327585220337 255 255 255
8.102763175964355 0.08759014308452606 -1.541420340538025 255 255 255
29.184690475463867 -6.287417411804199 -0.5861799716949463 255 255 255
9.885798454284668 -10.009440422058105 0.6570135354995728 255 255 255
9.874094009399414 -8.656068801879883 0.2137824147939682 255 255 255
8.674370765686035 -0.5020101070404053 -0.9453877806663513 255 255 255
16.417814254760742 -7.1630988121032715 -1.5890218019485474 255 255 255
5.145257949829102 1.2030054330825806 -0.8597418665885925 255 255 255
3.7281978130340576 2.3536601066589355 -0.17680098116397858 255 255 255
10.482730865478516 2.9071478843688965 0.03648854419589043 255 255 255
18.533554077148438 -8.905718803405762 -1.6670122146606445 255 255 255
16.155258178710938 5.214262962341309 -0.37222445011138916 255 255 255
8.034035682678223 0.2268976867198944 -0.20755277574062347 255 255 255
6.31722354888916 0.7502456307411194 -1.2540709972381592 255 255 255
7.229387283325195 3.623906135559082 0.4096406400203705 255 255 255
13.133173942565918 -2.4652769565582275 -1.374845266342163 255 255 255
24.25590705871582 -5.9218292236328125 -1.3492428064346313 255 255 255
27.749052047729492 -4.6435394287109375 0.19335278868675232 255 255 255
7.657433032989502 -3.6343963146209717 -1.7917964458465576 255 255 255
13.27912712097168 -2.5505332946777344 -0.27396899461746216 255 255 255
18.252700805664062 1.780624508857727 0.34147244691848755 255 255 255
37.53815460205078 -22.840932846069336 0.10603083670139313 255 255 255
4.147428035736084 1.6196832656860352 -0.6975425481796265 255 255 255
24.28398323059082 -14.989376068115234 -0.4558359980583191 255 255 255
21.259868621826172 -1.3442938327789307 0.4306066036224365 255 255 255
7.024766445159912 3.858112096786499 0.36731550097465515 255 255 255
18.175777435302734 3.9302573204040527 0.41288241744041443 255 255 255
12.528742790222168 5.700750350952148 -0.9065089225769043 255 255 255
8.648700714111328 -8.42269515991211 -0.7425459027290344 255 255 255
3.7495384216308594 1.754738450050354 -0.936147928237915 255 255 255
4.906576156616211 -3.3307723999023438 -1.3086440563201904 255 255 255
6.41527795791626 4.197103500366211 0.039042480289936066 255 255 255
12.220364570617676 -3.9120659828186035 -1.637418270111084 255 255 255
16.369291305541992 -4.136566638946533 -1.431654930114746 255 255 255
4.654524326324463 -3.9653396606445312 -1.0168503522872925 255 255 255
6.437047958374023 0.767362117767334 -1.0556331872940063 255 255 255
53.53340148925781 -14.52101993560791 0.7451537847518921 255 255 255
20.07607650756836 -13.105020523071289 -0.4931272864341736 255 255 255
17.94925308227539 0.26060396432876587 0.527935802936554 255 255 255
6.802829265594482 -0.21826086938381195 -1.6719437837600708 255 255 255
8.630000114440918 -8.117668151855469 -1.0703470706939697 255 255 255
13.790050506591797 -2.7987618446350098 -1.227246880531311 255 255 255
19.884525299072266 -9.224343299865723 -1.7596653699874878 255 255 255
10.905567169189453 4.798401832580566 0.0678994283080101 255 255 255
6.970525741577148 -0.771560788154602 -1.7043174505233765 255 255 255
10.408182144165039 2.8887877464294434 -0.09759373962879181 255 255 255
13.259750366210938 -2.238184928894043 -0.22781671583652496 255 255 255
7.3848114013671875 0.16155235469341278 -0.5078961849212646 255 255 255
13.886262893676758 -3.0035862922668457 -0.8422649502754211 255 255 255
13.86367130279541 5.695629119873047 -0.5391110777854919 255 255 255
6.743390083312988 0.4032858908176422 -1.383337378501892 255 255 255
46.83711624145508 -22.26810073852539 -1.428367257118225 255 255 255
6.605947017669678 0.7672966122627258 -1.038138747215271 255 255 255
7.358240604400635 1.3512866497039795 -0.6272023320198059 255 255 255
17.48801612854004 1.117048978805542 0.16207632422447205 255 255 255
7.151179313659668 3.8768153190612793 0.042477741837501526 255 255 255
27.519277572631836 -4.825327396392822 0.00944530125707388 255 255 255
8.032291412353516 5.261353015899658 0.47097113728523254 255 255 255
11.757905006408691 -1.9918057918548584 -1.6177631616592407 255 255 255
16.484424591064453 -7.852165699005127 -1.6671162843704224 255 255 255
9.71426773071289 -1.9989980459213257 -1.6670821905136108 255 255 255
4.819243431091309 -4.376691818237305 -1.1550415754318237 255 255 255
23.88442039489746 -14.51912784576416 -0.41538262367248535 255 255 255
13.302077293395996 -10.556680679321289 -0.13059411942958832 255 255 255
4.063629627227783 1.7029370069503784 -0.2632710039615631 255 255 255
12.709424018859863 3.3182339668273926 -0.9557612538337708 255 255 255
21.856307983398438 -0.6338378190994263 0.5418159365653992 255 255 255
22.620750427246094 -9.457820892333984 -1.6742782592773438 255 255 255
7.776162147521973 -2.6232187747955322 -1.7219599485397339 255 255 255
6.347333908081055 0.9238930940628052 -1.610404133796692 255 255 255
13.124837875366211 6.611339569091797 -0.882839560508728 255 255 255
10.808588027954102 -2.4070796966552734 -1.6988316774368286 255 255 255
21.34483528137207 -0.7137150764465332 0.8315677642822266 255 255 255
19.40945816040039 -12.840200424194336 0.2920188903808594 255 255 255
22.390485763549805 -8.895881652832031 -1.5978577136993408 255 255 255
19.42244529724121 3.3995800018310547 -0.3646124005317688 255 255 255
9.512862205505371 2.5739142894744873 -1.2514867782592773 255 255 255
16.161441802978516 4.3310465812683105 -0.6605405807495117 255 255 255
6.678928375244141 0.7273329496383667 -0.9750468730926514 255 255 255
10.125701904296875 -9.252357482910156 0.46681028604507446 255 255 255
14.164356231689453 -5.251867771148682 -1.6781880855560303 255 255 255
4.718046188354492 2.0904128551483154 -0.7594560980796814 255 255 255
3.9816479682922363 1.773115873336792 -0.18097402155399323 255 255 255
52.3038444519043 -27.748594284057617 0.04473612457513809 255 255 255
11.27922534942627 3.4350385665893555 0.23693102598190308 255 255 255
13.583479881286621 3.48665452003479 -0.772927463054657 255 255 255
7.177762985229492 -4.0478057861328125 -1.743425965309143 255 255 255
4.650866985321045 -4.194307804107666 -0.8769329786300659 255 255 255
15.087271690368652 -10.972002983093262 -1.1549853086471558 255 255 255
14.293335914611816 -4.038009166717529 -1.5677974224090576 255 255 255
6.861695289611816 3.8703417778015137 0.504483163356781 255 255 255
7.459152698516846 -2.4664039611816406 -1.7302024364471436 255 255 255
12.74249267578125 -2.2010903358459473 -0.7853583693504333 255 255 255
13.006664276123047 -1.5973248481750488 -0.5065016746520996 255 255 255
15.338294982910156 -8.603723526000977 -1.685691475868225 255 255 255
6.325890064239502 0.397327184677124 -1.6479814052581787 255 255 255
27.514305114746094 -4.919056415557861 -0.021455327048897743 255 255 255
11.873291969299316 4.8906941413879395 -0.9501963257789612 255 255 255
15.481607437133789 2.5478029251098633 0.714555025100708 255 255 255
6.80143928527832 4.060038089752197 0.11472739279270172 255 255 255
24.371196746826172 -14.765494346618652 -1.2264324426651 255 255 255
4.088440895080566 1.6254520416259766 -0.935538649559021 255 255 255
3.4708080291748047 1.925756573677063 -0.6819877624511719 255 255 255
9.405365943908691 -0.6777369976043701 -1.2963029146194458 255 255 255
4.694034099578857 -4.0001749992370605 -1.4033478498458862 255 255 255
3.2067770957946777 1.9983789920806885 -0.6888651847839355 255 255 255
3.507420539855957 1.8023701906204224 -0.8153238296508789 255 255 255
31.833786010742188 -18.940549850463867 -0.32522666454315186 255 255 255
3.573578119277954 1.898391604423523 -0.3487812578678131 255 255 255
22.336322784423828 -7.647259712219238 -1.4567415714263916 255 255 255
8.386810302734375 -8.07503890991211 -1.0084232091903687 255 255 255
18.459211349487305 -9.68537425994873 -0.23794317245483398 255 255 255
15.57847785949707 -6.432148456573486 -1.6512013673782349 255 255 255
9.406086921691895 -0.9107152819633484 -1.6267671585083008 255 255 255
31.07292938232422 -9.419768333435059 -0.6498351693153381 255 255 255
23.3715763092041 -14.445435523986816 -1.07173752784729 255 255 255
10.734833717346191 -8.923961639404297 0.5509089827537537 255 255 255
19.199199676513672 3.432576894760132 0.763486921787262 255 255 255
37.991554260253906 -13.57351303100586 -1.3478032350540161 255 255 255
53.34975814819336 -12.246926307678223 2.0248920917510986 255 255 255
16.389156341552734 -3.938122272491455 -1.503715991973877 255 255 255
72.57282257080078 -24.935226440429688 1.9147651195526123 255 255 255
4.7727508544921875 -3.8268539905548096 -1.2777904272079468 255 255 255
6.784602642059326 1.1317622661590576 -1.635974407196045 255 255 255
8.705084800720215 -8.305871963500977 -0.7899981737136841 255 255 255
17.537809371948242 8.43428897857666 -0.068882517516613 255 255 255
15.577688217163086 -6.1865553855896 -1.6114575862884521 255 255 255
10.535715103149414 -4.705070972442627 -1.7743099927902222 255 255 255
5.720502853393555 -3.600006580352783 -1.3368220329284668 255 255 255
8.194758415222168 -3.6665451526641846 -1.710218906402588 255 255 255
8.973017692565918 -1.5309693813323975 -1.7224723100662231 255 255 255
9.811914443969727 3.0959582328796387 0.4322189688682556 255 255 255
13.577849388122559 -2.093129873275757 -1.4835553169250488 255 255 255
10.113723754882812 3.4448962211608887 0.6011009812355042 255 255 255
3.752333641052246 1.8008962869644165 -0.16985346376895905 255 255 255
7.182858943939209 3.7037065029144287 0.03318580985069275 255 255 255
29.522302627563477 -14.16181468963623 -1.69386887550354 255 255 255
5.287909030914307 1.1223469972610474 -1.2211017608642578 255 255 255
9.03261947631836 -8.780571937561035 0.28018641471862793 255 255 255
21.3815860748291 -2.5858871936798096 0.9127843976020813 255 255 255
33.98708724975586 -5.145962715148926 0.9653417468070984 255 255 255
10.35183048248291 -5.875380516052246 -1.764129400253296 255 255 255
10.603392601013184 3.242811679840088 0.20578952133655548 255 255 255
4.639896392822266 -4.341700553894043 -1.1818130016326904 255 255 255
10.167333602905273 2.819817066192627 0.26637914776802063 255 255 255
4.991518020629883 1.172025442123413 -0.7491079568862915 255 255 255
10.712393760681152 -1.8212285041809082 -1.6770753860473633 255 255 255
5.3257317543029785 1.1345136165618896 -1.140964388847351 255 255 255
11.279786109924316 -8.903231620788574 0.586499810218811 255 255 255
6.772799968719482 3.899334192276001 -0.027780449017882347 255 255 255
16.537185668945312 -8.623679161071777 -1.7988018989562988 255 255 255
6.7820868492126465 1.0503361225128174 -1.6249034404754639 255 255 255
14.211091041564941 -3.1150290966033936 -1.658921480178833 255 255 255
7.127957820892334 0.18872876465320587 -1.0331135988235474 255 255 255
21.513103485107422 -0.5215211510658264 0.9795268177986145 255 255 255
6.798518180847168 -1.0572923421859741 -1.5758795738220215 255 255 255
6.928447723388672 4.453016757965088 0.19285275042057037 255 255 255
3.497732639312744 1.9814509153366089 -0.25447291135787964 255 255 255
7.719510078430176 -4.269242763519287 -1.718662142753601 255 255 255
3.541855573654175 1.8738138675689697 -0.6706386804580688 255 255 255
35.29741287231445 -8.986984252929688 -0.7371453642845154 255 255 255
4.833189010620117 -3.7054903507232666 -1.337225079536438 255 255 255
10.585362434387207 2.2072083950042725 -0.8187735080718994 255 255 255
7.63187313079834 -1.3185380697250366 -1.6571581363677979 255 255 255
8.559906005859375 -4.6288251876831055 -1.7581262588500977 255 255 255
13.552974700927734 -2.804262399673462 -1.0441889762878418 255 255 255
21.15110969543457 2.671462297439575 -0.006187924649566412 255 255 255
13.502079963684082 -1.4272087812423706 -1.4635310173034668 255 255 255
9.825299263000488 2.70160174369812 0.5402923822402954 255 255 255
20.20102882385254 -13.352980613708496 -0.3410179316997528 255 255 255
19.414264678955078 3.3953683376312256 -0.12189201265573502 255 255 255
12.925037384033203 -1.8233383893966675 -0.6021595001220703 255 255 255
6.952922344207764 3.935467004776001 -0.16070817410945892 255 255 255
20.500656127929688 2.9540319442749023 -0.31327366828918457 255 255 255
20.743854522705078 -7.908071041107178 -1.5666770935058594 255 255 255
9.782917022705078 -1.4918029308319092 -1.5961384773254395 255 255 255
12.342840194702148 5.462062835693359 -0.8458464741706848 255 255 255
12.118572235107422 3.2826247215270996 -0.9313611388206482 255 255 255
19.53140640258789 -12.768369674682617 -1.5829731225967407 255 255 255
12.731327056884766 -2.0009231567382812 -0.9077374935150146 255 255 255
10.344464302062988 4.416015625 0.36489298939704895 255 255 255
10.680872917175293 4.126475811004639 0.2904602587223053 255 255 255
14.834489822387695 -4.5632429122924805 -1.631648063659668 255 255 255
44.174652099609375 -8.78104305267334 1.1515783071517944 255 255 255
9.839399337768555 2.454730272293091 -0.8968045115470886 255 255 255
14.222837448120117 -2.2539560794830322 -1.5312514305114746 255 255 255
13.077796936035156 -4.2263007164001465 -1.588894009590149 255 255 255
38.88371658325195 -13.827014923095703 -0.8838114738464355 255 255 255
51.965389251708984 -20.982118606567383 0.12275046110153198 255 255 255
18.893949508666992 3.6553993225097656 0.6457305550575256 255 255 255
12.47657299041748 -3.903097152709961 -1.703402042388916 255 255 255
7.399807929992676 1.2734065055847168 -1.5121707916259766 255 255 255
6.980618953704834 -3.7338595390319824 -1.7885290384292603 255 255 255
8.652935028076172 -4.439262866973877 -1.7186812162399292 255 255 255
9.563812255859375 2.923063039779663 0.5182761549949646 255 255 255
9.334714889526367 -2.9883110523223877 -1.6938198804855347 255 255 255
4.9960737228393555 -3.4043571949005127 -0.7397621273994446 255 255 255
9.425566673278809 0.15991683304309845 -0.4851398468017578 255 255 255
18.573659896850586 -9.457791328430176 -1.058779239654541 255 255 255
7.313622951507568 0.06649766117334366 -0.9299843311309814 255 255 255
8.40787410736084 -2.807920455932617 -1.6052563190460205 255 255 255
6.648379802703857 4.278985500335693 0.2643921673297882 255 255 255
20.499675750732422 -12.272156715393066 0.7067897915840149 255 255 255
41.07474136352539 -7.291993618011475 1.5863640308380127 255 255 255
12.140154838562012 4.6974053382873535 -0.9945639967918396 255 255 255
7.946899890899658 -3.5567455291748047 -1.7251180410385132 255 255 255
12.858078956604004 -8.93936538696289 0.7185373306274414 255 255 255
3.3895137310028076 2.0456340312957764 -0.22712336480617523 255 255 255
8.189539909362793 -7.975788116455078 -0.7403104901313782 255 255 255
3.3138673305511475 1.931719183921814 -0.7799191474914551 255 255 255
9.41102409362793 2.6710734367370605 -0.7250412702560425 255 255 255
9.406180381774902 -5.157046794891357 -1.692278504371643 255 255 255
9.750068664550781 -2.3301689624786377 -1.6627081632614136 255 255 255
6.5656514167785645 -0.9048617482185364 -1.661364197731018 255 255 255
3.5204782485961914 2.027442455291748 -0.16873769462108612 255 255 255
13.660553932189941 7.0450825691223145 -0.4378480613231659 255 255 255
3.9966952800750732 1.7540361881256104 -0.3607223331928253 255 255 255
7.773859977722168 -0.16897612810134888 -1.0007282495498657 255 255 255
7.148353099822998 1.0124205350875854 -1.5100411176681519 255 255 255
6.575409889221191 1.3447753190994263 -1.171339988708496 255 255 255
10.706241607666016 4.466744422912598 -0.26498904824256897 255 255 255
8.226486206054688 -1.6223244667053223 -1.6874128580093384 255 255 255
7.167294025421143 -1.051936149597168 -1.6642441749572754 255 255 255
10.380874633789062 4.59929895401001 0.32677870988845825 255 255 255
8.287628173828125 0.747416079044342 -0.14166264235973358 255 255 255
18.808984756469727 -10.060935974121094 -1.7257099151611328 255 255 255
10.060087203979492 -8.6661376953125 0.2141626477241516 255 255 255
9.38216781616211 3.2460105419158936 0.3418866991996765 255 255 255
19.901762008666992 -13.095111846923828 -0.713756799697876 255 255 255
9.476161003112793 2.59859299659729 -0.4660301208496094 255 255 255
4.446759223937988 1.4381053447723389 -1.0125012397766113 255 255 255
21.14164161682129 -1.9375970363616943 0.5884803533554077 255 255 255
3.3814802169799805 2.035623073577881 -0.8138148188591003 255 255 255
9.7650785446167 -2.8415658473968506 -1.693507194519043 255 255 255
10.750426292419434 2.7535834312438965 -0.26892542839050293 255 255 255
7.236591339111328 1.3842880725860596 -1.552640438079834 255 255 255
13.842962265014648 -10.941972732543945 -0.31992071866989136 255 255 255
9.828179359436035 4.035068511962891 0.5124999284744263 255 255 255
10.841927528381348 -2.5228424072265625 -1.5961438417434692 255 255 255
7.85856819152832 -7.750604629516602 -1.6223645210266113 255 255 255
14.784668922424316 -5.350420951843262 -1.6450470685958862 255 255 255
13.0592679977417 -2.4376118183135986 -0.6448296308517456 255 255 255
60.67737579345703 -16.095733642578125 1.1609928607940674 255 255 255
13.414593696594238 -1.4824410676956177 -1.202207326889038 255 255 255
6.777187347412109 1.0867096185684204 -0.7679228186607361 255 255 255
12.966117858886719 -1.3151847124099731 -1.0640069246292114 255 255 255
52.218040466308594 -27.952180862426758 -0.2481694221496582 255 255 255
7.216988563537598 3.8406424522399902 0.20098134875297546 255 255 255
9.151101112365723 -8.513798713684082 -0.23736371099948883 255 255 255
7.9996724128723145 -0.3285432755947113 -0.8155031800270081 255 255 255
9.2149658203125 -3.9734747409820557 -1.7361891269683838 255 255 255
21.433618545532227 -1.6833430528640747 0.8149111270904541 255 255 255
4.542269706726074 1.3965519666671753 -1.0233983993530273 255 255 255
5.089818954467773 -3.307964324951172 -1.1105748414993286 255 255 255
10.299653053283691 2.8520658016204834 -0.1460055559873581 255 255 255
16.404972076416016 -6.140169620513916 -1.5532691478729248 255 255 255
13.397785186767578 -1.6496098041534424 -0.16652430593967438 255 255 255
13.344456672668457 3.1717774868011475 -0.6042805314064026 255 255 255
6.953510284423828 4.276491165161133 0.05383678153157234 255 255 255
10.250496864318848 -3.4523305892944336 -1.702988624572754 255 255 255
9.589951515197754 2.559330463409424 -1.1854339838027954 255 255 255
6.98795223236084 3.9734952449798584 -0.1650880128145218 255 255 255
9.825904846191406 -8.715137481689453 -0.6691948175430298 255 255 255
10.945538520812988 -8.842673301696777 0.1272929161787033 255 255 255
18.427120208740234 -7.150965690612793 -1.7005548477172852 255 255 255
7.1147332191467285 0.9060251712799072 -1.5577491521835327 255 255 255
13.133723258972168 -1.6238467693328857 -0.7745803594589233 255 255 255
18.87554359436035 3.6500394344329834 -0.4402368366718292 255 255 255
4.642333984375 -4.325531959533691 -0.7898610234260559 255 255 255
18.130090713500977 3.8701694011688232 0.4443984925746918 255 255 255
4.973015785217285 1.1974557638168335 -1.0825923681259155 255 255 255
10.520401000976562 4.772642135620117 0.19261056184768677 255 255 255
3.7453911304473877 1.8713799715042114 -0.20926643908023834 255 255 255
19.46734619140625 -6.273557662963867 -1.6399312019348145 255 255 255
7.091263294219971 4.053077697753906 0.3550412654876709 255 255 255
6.183649063110352 -1.222724199295044 -1.6167635917663574 255 255 255
6.4148054122924805 0.9044374823570251 -1.101514220237732 255 255 255
6.99361515045166 3.949246883392334 -0.3280217945575714 255 255 255
34.52720642089844 -8.643516540527344 -0.4908760190010071 255 255 255
18.31710433959961 -10.198087692260742 -0.2729335129261017 255 255 255
7.356398105621338 3.766557216644287 0.420933336019516 255 255 255
24.617717742919922 -11.789095878601074 -1.6749026775360107 255 255 255
8.159748077392578 -0.526482880115509 -1.5920519828796387 255 255 255
9.784828186035156 2.4973387718200684 -0.3479969799518585 255 255 255
6.561264514923096 -0.16739004850387573 -1.6317640542984009 255 255 255
4.842060089111328 1.2863943576812744 -1.0597171783447266 255 255 255
18.174039840698242 0.34392231702804565 -0.21928726136684418 255 255 255
20.703998565673828 2.9005684852600098 -0.07624499499797821 255 255 255
16.166616439819336 5.41693115234375 -0.3829343616962433 255 255 255
8.161097526550293 0.5306875705718994 -0.129720538854599 255 255 255
13.359762191772461 6.584149360656738 -0.826150119304657 255 255 255
9.594149589538574 2.578701972961426 -0.18733632564544678 255 255 255
13.981866836547852 -7.38439416885376 -1.8821232318878174 255 255 255
58.571502685546875 -30.205530166625977 0.9460141658782959 255 255 255
14.896512985229492 -4.168107032775879 -1.529974102973938 255 255 255
10.214619636535645 -3.0335090160369873 -1.658369541168213 255 255 255
10.75654125213623 4.496576309204102 -0.7200225591659546 255 255 255
8.609517097473145 -4.053718090057373 -1.7675118446350098 255 255 255
9.486503601074219 -8.91256046295166 -0.8030004501342773 255 255 255
6.715678691864014 4.090895652770996 0.1952202171087265 255 255 255
10.519369125366211 -4.997530937194824 -1.7229726314544678 255 255 255
10.587608337402344 -4.700827121734619 -1.7265480756759644 255 255 255
6.286624431610107 0.9376072883605957 -1.6185725927352905 255 255 255
6.9405903816223145 0.19393955171108246 -1.6154530048370361 255 255 255
13.68956470489502 2.877591848373413 0.23928111791610718 255 255 255
6.790078639984131 -0.8699061274528503 -1.6051894426345825 255 255 255
8.064764976501465 1.2342318296432495 -0.41902902722358704 255 255 255
8.984800338745117 -4.665401458740234 -1.8743797540664673 255 255 255
18.250585556030273 -9.654459953308105 -0.7669901251792908 255 255 255
24.16692543029785 -14.72360610961914 -1.523616075515747 255 255 255
16.089279174804688 5.03003454208374 -0.08832559734582901 255 255 255
6.595184326171875 0.9279576539993286 -1.2865909337997437 255 255 255
6.148019790649414 0.44962266087532043 -1.6157491207122803 255 255 255
6.944763660430908 -3.4319121837615967 -1.7609941959381104 255 255 255
9.280975341796875 -9.103540420532227 0.5078021287918091 255 255 255
6.868646621704102 0.8390570282936096 -1.6007875204086304 255 255 255
10.201913833618164 4.270516872406006 0.415056973695755 255 255 255
7.802784442901611 -2.5107619762420654 -1.6337631940841675 255 255 255
23.786985397338867 -8.772624969482422 -1.54441499710083 255 255 255
7.0417938232421875 0.9841668605804443 -0.6289148926734924 255 255 255
3.8909997940063477 1.6327508687973022 -0.8530976176261902 255 255 255
6.403491020202637 0.3540498912334442 -1.58694589138031 255 255 255
6.764667987823486 -4.149903774261475 -1.8772704601287842 255 255 255
9.566493034362793 2.8608896732330322 0.41781923174858093 255 255 255
6.223557472229004 -1.503729224205017 -1.659033179283142 255 255 255
3.869438886642456 2.000544786453247 -0.2643049955368042 255 255 255
9.304466247558594 -9.064913749694824 0.21852074563503265 255 255 255
9.832391738891602 3.660439968109131 0.33216479420661926 255 255 255
6.815554618835449 4.05784273147583 0.10906075686216354 255 255 255
11.07958984375 -9.025221824645996 0.039029110223054886 255 255 255
18.41037940979004 -9.330544471740723 -0.6191293001174927 255 255 255
19.472936630249023 3.2950127124786377 0.45009681582450867 255 255 255
18.410106658935547 -0.008334853686392307 -0.05283039063215256 255 255 255
3.4955708980560303 1.8994507789611816 -0.6991674304008484 255 255 255
7.342641353607178 3.763667106628418 -0.22742612659931183 255 255 255
7.6457343101501465 -2.9359545707702637 -1.6675903797149658 255 255 255
9.700695991516113 -1.1709610223770142 -1.483818531036377 255 255 255
4.645501136779785 -4.037537574768066 -1.2359774112701416 255 255 255
6.430091857910156 0.5177827477455139 -1.0081830024719238 255 255 255
17.113525390625 7.4096784591674805 -0.13893242180347443 255 255 255
15.6654052734375 1.3930121660232544 0.3882077932357788 255 255 255
4.783115386962891 1.3482372760772705 -0.9731875061988831 255 255 255
9.108283042907715 -4.397037982940674 -1.8275806903839111 255 255 255
36.548954010009766 -9.645419120788574 0.19798265397548676 255 255 255
6.2560038566589355 -3.4949429035186768 -1.8448485136032104 255 255 255
6.525707244873047 0.3815804421901703 -1.0713261365890503 255 255 255
12.432292938232422 -4.026729106903076 -1.6142160892486572 255 255 255
14.834087371826172 -3.413597583770752 -1.56757390499115 255 255 255
21.823766708374023 -1.1527149677276611 0.16257764399051666 255 255 255
22.5939884185791 -9.641728401184082 -1.7013643980026245 255 255 255
12.574618339538574 -4.1588358879089355 -1.657955527305603 255 255 255
13.606411933898926 -3.6611649990081787 -1.6458231210708618 255 255 255
8.925541877746582 -0.32546466588974 -1.6381778717041016 255 255 255
4.573051929473877 -4.287922382354736 -1.2180894613265991 255 255 255
15.9835844039917 5.0766072273254395 -0.45617249608039856 255 255 255
33.98622131347656 -11.745744705200195 -1.4467401504516602 255 255 255
7.037221908569336 -0.09455893188714981 -1.6856499910354614 255 255 255
7.859253406524658 -1.8498269319534302 -1.7011810541152954 255 255 255
18.43439292907715 -6.951353549957275 -1.5365056991577148 255 255 255
3.62447452545166 2.115309238433838 -0.17907670140266418 255 255 255
9.963689804077148 -4.690406322479248 -1.7172582149505615 255 255 255
13.995169639587402 -1.5604352951049805 -1.555533528327942 255 255 255
9.94334888458252 3.6265265941619873 0.35624200105667114 255 255 255
5.32475471496582 -3.4888176918029785 -1.3223761320114136 255 255 255
5.040013790130615 -4.248428821563721 -0.8952945470809937 255 255 255
24.081830978393555 -0.5220518708229065 0.13653190433979034 255 255 255
8.336639404296875 -0.0489637553691864 -0.6742258667945862 255 255 255
8.029667854309082 0.5328139662742615 -0.15554852783679962 255 255 255
6.504205703735352 -1.1987587213516235 -1.7280229330062866 255 255 255
8.900571823120117 2.819340944290161 -1.0914745330810547 255 255 255
9.345259666442871 -0.6913126111030579 -0.3925643861293793 255 255 255
22.72824478149414 -9.973271369934082 -1.5741969347000122 255 255 255
13.64754581451416 6.216961860656738 -0.6169564127922058 255 255 255
15.319002151489258 -3.543675661087036 -0.9507624506950378 255 255 255
6.189101696014404 -0.5728182196617126 -1.6355538368225098 255 255 255
6.864598751068115 4.215010166168213 -0.18877731263637543 255 255 255
30.977746963500977 -10.073161125183105 -0.830830454826355 255 255 255
9.47121524810791 3.9196484088897705 0.366804838180542 255 255 255
12.739326477050781 -2.3598649501800537 -1.045423150062561 255 255 255
7.274155616760254 0.999484658241272 -0.6117682456970215 255 255 255
10.66865062713623 -9.267590522766113 -0.3366856873035431 255 255 255
9.172629356384277 -0.7179948687553406 -0.7192447781562805 255 255 255
61.160274505615234 -16.011310577392578 2.2908310890197754 255 255 255
9.8218355178833 3.5039937496185303 0.2173086553812027 255 255 255
10.815522193908691 4.50493860244751 -0.20656490325927734 255 255 255
7.051802635192871 1.7271068096160889 -0.8868067264556885 255 255 255
7.39276123046875 -0.26188939809799194 -1.6319547891616821 255 255 255
13.673445701599121 -4.463021278381348 -1.6555882692337036 255 255 255
19.904827117919922 3.1409921646118164 0.2949020564556122 255 255 255
19.74968719482422 -12.960078239440918 0.5434713959693909 255 255 255
6.520293712615967 -0.8322541117668152 -1.6994348764419556 255 255 255
9.892961502075195 -9.685970306396484 0.3115811347961426 255 255 255
3.637355327606201 1.7215303182601929 -0.5894420146942139 255 255 255
9.543416976928711 2.4882314205169678 -1.3324137926101685 255 255 255
21.0020694732666 -1.5538544654846191 0.2673967182636261 255 255 255
34.832271575927734 -8.746031761169434 -0.6969159841537476 255 255 255
17.00338363647461 3.3024678230285645 -0.7708868384361267 255 255 255
7.331088542938232 -1.165503978729248 -1.7243632078170776 255 255 255
5.212587356567383 1.1660128831863403 -1.0300358533859253 255 255 255
18.30118179321289 -9.716683387756348 -1.411425232887268 255 255 255
3.5605578422546387 1.826634168624878 -0.4233647584915161 255 255 255
13.003134727478027 -1.7784346342086792 -0.8801546096801758 255 255 255
13.483384132385254 3.4806220531463623 -0.6194732189178467 255 255 255
13.620660781860352 -2.056353807449341 -1.5618914365768433 255 255 255
3.9895212650299072 2.3811092376708984 -0.08870594203472137 255 255 255
7.068710803985596 -3.392587184906006 -1.6926567554473877 255 255 255
6.95237922668457 4.205974578857422 -0.09185580164194107 255 255 255
7.501546859741211 3.7335379123687744 -0.06288044154644012 255 255 255
8.593415260314941 -8.319612503051758 -0.7545571327209473 255 255 255
3.3641083240509033 1.9820131063461304 -0.23306061327457428 255 255 255
14.766593933105469 -2.34458327293396 -1.4841322898864746 255 255 255
14.77066707611084 -6.6541428565979 -1.7563252449035645 255 255 255
8.256532669067383 -3.5935068130493164 -1.7234452962875366 255 255 255
13.682714462280273 -10.38964557647705 -0.25053825974464417 255 255 255
6.589966297149658 -2.6799440383911133 -1.6805508136749268 255 255 255
8.455917358398438 -1.8088001012802124 -1.6931140422821045 255 255 255
3.1997010707855225 2.01932954788208 -0.1339224874973297 255 255 255
16.14822006225586 4.963138103485107 -0.3287801146507263 255 255 255
37.849117279052734 -13.02987289428711 -1.2237251996994019 255 255 255
11.623710632324219 -9.628715515136719 -0.3159697353839874 255 255 255
12.448677062988281 4.896764755249023 -0.8543585538864136 255 255 255
13.401725769042969 3.2491049766540527 -0.8082247376441956 255 255 255
3.2445366382598877 1.9470442533493042 -0.7366668581962585 255 255 255
13.379133224487305 -6.9993367195129395 -1.6676825284957886 255 255 255
8.665162086486816 2.8829171657562256 -0.971183180809021 255 255 255
10.158352851867676 -2.33656644821167 -1.541650652885437 255 255 255
12.956177711486816 -10.104342460632324 -0.4602959156036377 255 255 255
26.528791427612305 -11.070128440856934 -1.6598488092422485 255 255 255
6.852944850921631 -1.6189305782318115 -1.630866527557373 255 255 255
4.987993240356445 -3.436253309249878 -1.1204156875610352 255 255 255
4.6722917556762695 -4.198433876037598 -1.1131341457366943 255 255 255
12.859484672546387 -8.831300735473633 0.5020310878753662 255 255 255
14.3296480178833 7.119513034820557 -0.5661020278930664 255 255 255
10.755356788635254 4.8497843742370605 0.08211037516593933 255 255 255
5.368779182434082 1.2249019145965576 -1.0594422817230225 255 255 255
9.004853248596191 -8.845492362976074 -0.23411279916763306 255 255 255
7.066748142242432 3.9795024394989014 -0.31027543544769287 255 255 255
9.65970230102539 2.528374671936035 -0.8715379238128662 255 255 255
14.412189483642578 -10.565829277038574 -0.0631701871752739 255 255 255
10.442875862121582 4.175254821777344 0.10787848383188248 255 255 255
8.487257957458496 2.9482314586639404 -0.9694889187812805 255 255 255
3.9363842010498047 1.590991735458374 -0.9517231583595276 255 255 255
44.05198669433594 -16.739822387695312 -1.3004766702651978 255 255 255
6.504409313201904 -0.5508629083633423 -1.6413081884384155 255 255 255
6.711533069610596 1.1622214317321777 -1.5702695846557617 255 255 255
6.400173187255859 0.3845798075199127 -1.6464751958847046 255 255 255
9.986116409301758 2.7862601280212402 0.28599584102630615 255 255 255
12.233010292053223 -9.50493335723877 0.1923554390668869 255 255 255
12.536288261413574 -9.901460647583008 -0.5583406686782837 255 255 255
16.381223678588867 2.8558549880981445 -0.864717423915863 255 255 255
21.444377899169922 -0.6089621782302856 0.9530633091926575 255 255 255
6.686155319213867 4.1749796867370605 -0.19086168706417084 255 255 255
6.8910417556762695 0.57137131690979 -0.690796971321106 255 255 255
52.58386993408203 -23.433387756347656 -1.244011402130127 255 255 255
5.1990766525268555 1.178981065750122 -0.9450151324272156 255 255 255
35.9207649230957 -16.192729949951172 -1.5669409036636353 255 255 255
26.809398651123047 -15.986259460449219 -0.7326017022132874 255 255 255
17.808530807495117 1.1216986179351807 0.05027267336845398 255 255 255
11.896387100219727 4.207425594329834 -0.9225534200668335 255 255 255
8.984379768371582 -1.3838696479797363 -1.6995530128479004 255 255 255
9.016871452331543 -1.2708179950714111 -1.6763899326324463 255 255 255
20.2215518951416 -13.180867195129395 -0.7530630826950073 255 255 255
6.725153923034668 4.137283802032471 0.33513638377189636 255 255 255
19.94234848022461 3.1359875202178955 0.12666703760623932 255 255 255
5.08338737487793 1.2858264446258545 -1.1220011711120605 255 255 255
38.488365173339844 -14.854289054870605 -1.3531155586242676 255 255 255
8.775665283203125 -3.692173957824707 -1.5935662984848022 255 255 255
7.4459099769592285 -2.73488712310791 -1.6934176683425903 255 255 255
19.822677612304688 -8.954079627990723 -1.704223871231079 255 255 255
4.894031047821045 1.2259305715560913 -0.8422756195068359 255 255 255
7.128682613372803 0.07625722885131836 -0.9270215034484863 255 255 255
14.403244018554688 3.012852668762207 -0.9415763020515442 255 255 255
8.226313591003418 -0.20134912431240082 -1.312615990638733 255 255 255
21.448463439941406 -1.5878177881240845 0.5269086360931396 255 255 255
43.0969352722168 -8.053841590881348 1.232932686805725 255 255 255
7.291493892669678 0.11536139994859695 -1.5867518186569214 255 255 255
6.358302593231201 -2.414759635925293 -1.783077359199524 255 255 255
12.651571273803711 -2.222243547439575 -0.6846756339073181 255 255 255
7.348010540008545 3.7717490196228027 0.3725660741329193 255 255 255
7.317070007324219 -2.5465874671936035 -1.7967407703399658 255 255 255
10.051734924316406 -9.288688659667969 0.6630039811134338 255 255 255
18.405561447143555 -10.989776611328125 -1.7346802949905396 255 255 255
3.674415111541748 1.637203335762024 -0.647202730178833 255 255 255
14.188605308532715 -4.980024814605713 -1.6643673181533813 255 255 255
23.706417083740234 -7.971750259399414 -1.4873160123825073 255 255 255
3.6104023456573486 1.9390617609024048 -0.26746758818626404 255 255 255
8.350564002990723 -3.032057523727417 -1.6991208791732788 255 255 255
7.255380630493164 4.570725917816162 -0.2793753445148468 255 255 255
6.620625972747803 0.9060063362121582 -1.3560113906860352 255 255 255
11.883604049682617 4.102286338806152 -0.9148318767547607 255 255 255
7.445864200592041 0.03281348571181297 -0.8765736818313599 255 255 255
6.629586696624756 0.34563490748405457 -0.9083636403083801 255 255 255
13.124246597290039 -2.8723819255828857 -1.569055438041687 255 255 255
13.149529457092285 -3.269400119781494 -1.6144558191299438 255 255 255
5.128355026245117 1.2264137268066406 -1.2928372621536255 255 255 255
3.4169583320617676 2.0262372493743896 -0.23779894411563873 255 255 255
6.927483558654785 0.09523437172174454 -1.7140846252441406 255 255 255
7.883868217468262 -1.2815388441085815 -1.6722139120101929 255 255 255
20.32841682434082 -13.162762641906738 -0.2779482901096344 255 255 255
13.114501953125 -3.357527256011963 -1.6457666158676147 255 255 255
4.121029853820801 1.4971622228622437 -0.9346271753311157 255 255 255
18.395977020263672 -0.25521549582481384 -0.1504819691181183 255 255 255
17.74083137512207 1.2691644430160522 0.2943383455276489 255 255 255
14.660186767578125 -10.862103462219238 -0.6079431176185608 255 255 255
7.144543647766113 3.800199031829834 -0.004308534320443869 255 255 255
10.494243621826172 4.174341678619385 -0.03826150298118591 255 255 255
5.3058180809021 0.9364556074142456 -1.2883825302124023 255 255 255
7.1009039878845215 0.4408723711967468 -0.6493991613388062 255 255 255
10.79416275024414 4.411639213562012 -0.703594982624054 255 255 255
6.235641002655029 1.192695140838623 -1.6104897260665894 255 255 255
7.530137538909912 -0.06730164587497711 -1.2519216537475586 255 255 255
21.0257625579834 -2.257514715194702 0.6460937261581421 255 255 255
7.462454319000244 -2.5860631465911865 -1.7284282445907593 255 255 255
42.740631103515625 -8.084299087524414 0.35247746109962463 255 255 255
12.082180976867676 -1.3316494226455688 -1.6392515897750854 255 255 255
15.038593292236328 -10.927867889404297 -0.8501903414726257 255 255 255
18.4569034576416 -9.445793151855469 -1.168776512145996 255 255 255
5.926656246185303 -3.746915340423584 -0.9043838977813721 255 255 255
14.706097602844238 -1.8647758960723877 -1.4914339780807495 255 255 255
7.0423078536987305 -0.422446072101593 -1.6809238195419312 255 255 255
13.558316230773926 -2.750988245010376 -0.6327577233314514 255 255 255
18.598819732666016 0.12312448769807816 -0.046719443053007126 255 255 255
15.345440864562988 1.4931530952453613 0.36760255694389343 255 255 255
7.02872896194458 1.0630338191986084 -0.6576396822929382 255 255 255
6.439955234527588 1.0044981241226196 -1.0379739999771118 255 255 255
7.541334629058838 -0.8712415099143982 -1.6776622533798218 255 255 255
17.232192993164062 -5.803035736083984 -1.61460542678833 255 255 255
8.85761833190918 -3.3755810260772705 -1.6312156915664673 255 255 255
8.894635200500488 -0.7799044847488403 -1.7042107582092285 255 255 255
13.114212036132812 6.637857437133789 -0.8697505593299866 255 255 255
18.470596313476562 -7.769566535949707 -1.7156485319137573 255 255 255
11.465841293334961 3.930063486099243 -0.9771554470062256 255 255 255
13.536516189575195 -6.492824077606201 -1.672481656074524 255 255 255
22.12940216064453 -2.628946542739868 0.13994260132312775 255 255 255
10.069259643554688 -8.859297752380371 -0.6249590516090393 255 255 255
3.6425259113311768 1.906328797340393 -0.44943979382514954 255 255 255
15.615717887878418 -3.873584747314453 -1.5976183414459229 255 255 255
17.34676742553711 -5.33433723449707 -1.5862740278244019 255 255 255
13.303571701049805 6.364928245544434 -0.6608977317810059 255 255 255
8.189329147338867 5.3233418464660645 0.0458739697933197 255 255 255
6.7722063064575195 0.43030837178230286 -0.8028919100761414 255 255 255
9.236001968383789 -3.723881244659424 -1.7859903573989868 255 255 255
24.0489559173584 -5.811448097229004 -1.3146660327911377 255 255 255
4.7775983810424805 1.3082129955291748 -0.6645890474319458 255 255 255
17.46165657043457 -0.4607660472393036 -0.4234769940376282 255 255 255
7.628457069396973 -1.5023603439331055 -1.7019221782684326 255 255 255
17.601198196411133 0.901496946811676 -0.2048775851726532 255 255 255
6.8626909255981445 3.936976432800293 -0.20007681846618652 255 255 255
10.42419147491455 -9.010885238647461 0.6385405659675598 255 255 255
12.151350021362305 -1.3962275981903076 -1.529994249343872 255 255 255
13.1036376953125 -1.381752848625183 -0.4690047800540924 255 255 255
5.0636138916015625 -3.328126907348633 -1.2476143836975098 255 255 255
4.838030815124512 -3.7839789390563965 -1.3029673099517822 255 255 255
13.008264541625977 -4.8107686042785645 -1.589355230331421 255 255 255
18.103239059448242 -10.029426574707031 -1.5245915651321411 255 255 255
8.370631217956543 0.36146366596221924 -0.11147786676883698 255 255 255
17.786035537719727 0.35456550121307373 -0.021070541813969612 255 255 255
7.944626331329346 -0.2595396339893341 -1.0004541873931885 255 255 255
19.324066162109375 -4.838988304138184 -1.5813851356506348 255 255 255
18.676206588745117 3.7146341800689697 -0.3397980034351349 255 255 255
4.661869525909424 -3.6611297130584717 -1.3996621370315552 255 255 255
6.915884017944336 4.004703998565674 0.43452200293540955 255 255 255
3.7137842178344727 1.6871532201766968 -0.7419129610061646 255 255 255
6.770572662353516 -0.14192059636116028 -1.5476657152175903 255 255 255
19.35664176940918 -12.918803215026855 0.444800466299057 255 255 255
17.928245544433594 0.2919338345527649 -0.26072773337364197 255 255 255
8.430109977722168 -2.2795848846435547 -1.7360879182815552 255 255 255
19.271535873413086 3.357550859451294 -0.04998882859945297 255 255 255
9.286291122436523 -4.775909900665283 -1.7165511846542358 255 255 255
6.820828437805176 4.145882606506348 0.050792306661605835 255 255 255
7.2202348709106445 0.6154181957244873 -1.6251165866851807 255 255 255
6.53941535949707 -2.911226272583008 -1.6808723211288452 255 255 255
8.995890617370605 -8.492323875427246 -0.23705460131168365 255 255 255
9.445581436157227 -8.499802589416504 -0.9055561423301697 255 255 255
16.414419174194336 -11.559614181518555 -1.0186357498168945 255 255 255
6.500952243804932 0.9649744033813477 -1.2627112865447998 255 255 255
17.718175888061523 0.43295004963874817 -0.2660532593727112 255 255 255
20.47005271911621 -6.179999351501465 -1.4971826076507568 255 255 255
3.3004469871520996 1.928239345550537 -0.7362553477287292 255 255 255
9.952037811279297 -9.532367706298828 0.7109857797622681 255 255 255
55.103759765625 -29.086084365844727 -0.2576722204685211 255 255 255
18.413381576538086 1.9908027648925781 0.6223514080047607 255 255 255
8.05014705657959 -0.23909741640090942 -0.7473726868629456 255 255 255
14.44534683227539 -10.401987075805664 0.21817104518413544 255 255 255
8.432648658752441 -0.33053794503211975 -1.5736445188522339 255 255 255
7.037691593170166 -3.836293935775757 -1.7665942907333374 255 255 255
13.125097274780273 -3.464768409729004 -1.6356247663497925 255 255 255
17.373369216918945 -11.822351455688477 -1.099434733390808 255 255 255
9.344599723815918 -8.52353286743164 -0.8767764568328857 255 255 255
74.0851058959961 -21.891429901123047 1.4579957723617554 255 255 255
3.9088852405548096 1.6391844749450684 -0.8993110060691833 255 255 255
6.9755754470825195 3.9439585208892822 0.270873486995697 255 255 255
21.824779510498047 -1.6606820821762085 1.006564974784851 255 255 255
21.27610206604004 -1.44563889503479 0.7442572712898254 255 255 255
6.612351894378662 -2.490345001220703 -1.7328941822052002 255 255 255
18.971633911132812 3.5280768871307373 0.29747334122657776 255 255 255
20.903331756591797 -2.2791147232055664 0.6997057795524597 255 255 255
17.055965423583984 7.357697010040283 0.06955014169216156 255 255 255
9.799775123596191 -5.373257160186768 -1.743269681930542 255 255 255
20.632259368896484 -1.1706006526947021 0.6560457944869995 255 255 255
12.223577499389648 -8.658214569091797 0.5154622197151184 255 255 255
5.002165794372559 1.219396710395813 -1.164301872253418 255 255 255
16.432933807373047 -4.825292110443115 -1.5438669919967651 255 255 255
13.604715347290039 -2.777229070663452 -0.8820061683654785 255 255 255
6.098084926605225 0.6293569803237915 -1.5477213859558105 255 255 255
16.35664939880371 -11.578788757324219 -0.730367124080658 255 255 255
8.620233535766602 3.104785442352295 -0.7320427894592285 255 255 255
5.155518054962158 1.1843379735946655 -0.7916367650032043 255 255 255
8.50575065612793 -0.11796815693378448 -0.08043691515922546 255 255 255
6.765865325927734 0.009356497786939144 -1.6118303537368774 255 255 255
9.054931640625 -2.2075843811035156 -1.6058307886123657 255 255 255
9.517207145690918 2.7449941635131836 -0.6794571280479431 255 255 255
13.555558204650879 3.1021311283111572 -0.8929132223129272 255 255 255
11.662224769592285 -9.0497407913208 0.6673275232315063 255 255 255
10.63450813293457 4.935117244720459 0.33364158868789673 255 255 255
4.926577568054199 -3.5351409912109375 -0.9330516457557678 255 255 255
16.58273696899414 6.440802574157715 -0.2900587022304535 255 255 255
4.9256696701049805 1.1822682619094849 -0.9563152194023132 255 255 255
10.300667762756348 2.7913503646850586 0.20403017103672028 255 255 255
6.58605432510376 0.47849345207214355 -0.9842842221260071 255 255 255
14.10030460357666 5.248268127441406 -0.6352367401123047 255 255 255
10.37879753112793 -5.242013454437256 -1.7180031538009644 255 255 255
6.18310546875 -1.700211524963379 -1.6872328519821167 255 255 255
7.075268268585205 -0.24884945154190063 -1.6139228343963623 255 255 255
18.58477210998535 -1.2618656158447266 -0.2150367647409439 255 255 255
4.396154403686523 1.4581265449523926 -0.8610150814056396 255 255 255
6.87604284286499 0.7344808578491211 -1.6214960813522339 255 255 255
20.175647735595703 -12.029422760009766 0.9106835722923279 255 255 255
18.94139289855957 0.1320808231830597 0.48539361357688904 255 255 255
20.503793716430664 2.8613922595977783 -0.08726443350315094 255 255 255
9.658570289611816 -8.859010696411133 -0.14140471816062927 255 255 255
15.80982780456543 -3.66984486579895 -1.168563723564148 255 255 255
22.37909698486328 -13.517346382141113 0.5786144137382507 255 255 255
7.02721643447876 -0.40235352516174316 -1.7400941848754883 255 255 255
6.950118541717529 1.4790849685668945 -0.7353553771972656 255 255 255
13.51058292388916 -6.263619899749756 -1.6826971769332886 255 255 255
17.7868595123291 4.035405158996582 0.28308114409446716 255 255 255
17.50520896911621 8.440275192260742 0.04385410621762276 255 255 255
7.476552963256836 -4.2418646812438965 -1.461830973625183 255 255 255
19.38283920288086 -6.289279937744141 -1.5409343242645264 255 255 255
6.152462959289551 -2.2904272079467773 -1.6979435682296753 255 255 255
22.295303344726562 -3.408475875854492 0.9998898506164551 255 255 255
3.6138834953308105 1.8813222646713257 -0.36604005098342896 255 255 255
18.118940353393555 -0.1156611293554306 0.11245283484458923 255 255 255
4.646911144256592 -4.187324047088623 -1.2777818441390991 255 255 255
7.330344200134277 3.694206953048706 0.21841099858283997 255 255 255
11.768572807312012 -6.480144023895264 -1.7340142726898193 255 255 255
9.677482604980469 -8.735270500183105 -0.4214380979537964 255 255 255
18.25505828857422 1.6476471424102783 0.6541451811790466 255 255 255
15.568697929382324 -5.688870429992676 -1.646693229675293 255 255 255
17.108583450317383 7.375108242034912 0.09312184154987335 255 255 255
14.512592315673828 -3.0789475440979004 -1.2808837890625 255 255 255
9.864269256591797 -9.254984855651855 0.3015116751194 255 255 255
6.480523109436035 0.9657090902328491 -1.0398247241973877 255 255 255
3.9512250423431396 1.7792842388153076 -0.1995684951543808 255 255 255
8.60136890411377 -8.697596549987793 0.013422772288322449 255 255 255
21.324525833129883 -2.5791432857513428 0.7872008085250854 255 255 255
9.536499977111816 2.7532894611358643 0.5060453414916992 255 255 255
8.257509231567383 -8.090632438659668 -0.6731935739517212 255 255 255
9.617172241210938 2.478675365447998 0.4939767122268677 255 255 255
15.572552680969238 -5.93309211730957 -1.689677119255066 255 255 255
19.058237075805664 3.509979486465454 0.4417811334133148 255 255 255
12.134207725524902 -4.942506790161133 -1.602168083190918 255 255 255
15.754079818725586 1.3962535858154297 0.688205361366272 255 255 255
4.64980936050415 2.0360710620880127 -0.7962288856506348 255 255 255
12.016108512878418 -9.710587501525879 -0.47570639848709106 255 255 255
7.46303653717041 -7.451116561889648 -1.789261817932129 255 255 255
13.29118824005127 6.114473342895508 -0.8596147894859314 255 255 255
9.056731224060059 2.789447546005249 -1.1818441152572632 255 255 255
17.84054183959961 1.3021396398544312 0.08122612535953522 255 255 255
6.744408130645752 -0.7324949502944946 -1.5678349733352661 255 255 255
9.769206047058105 2.4527692794799805 -1.25789213180542 255 255 255
10.683645248413086 -9.200418472290039 -0.4418904483318329 255 255 255
8.196148872375488 -0.35050642490386963 -1.142756700515747 255 255 255
