ply
format ascii 1.0
element vertex 683
property float x
property float y
property float z
property uchar red
property uchar green
property uchar blue
end_header
13.219755172729492 2.9319851398468018 -0.0975414589047432 255 255 255
10.893427848815918 2.502051830291748 -0.17512015998363495 255 255 255
11.072630882263184 2.5451622009277344 -0.060446929186582565 255 255 255
10.971670150756836 2.498746156692505 -0.14664505422115326 255 255 255
11.078195571899414 2.643649101257324 -0.0003129008982796222 255 255 255
10.814251899719238 2.5686240196228027 -0.04110349714756012 255 255 255
10.75769329071045 2.5571367740631104 0.0675598531961441 255 255 255
10.911955833435059 2.756469249725342 -0.04654015228152275 255 255 255
10.641608238220215 2.724050521850586 -0.022000271826982498 255 255 255
10.599623680114746 2.7393381595611572 -0.09519992768764496 255 255 255
10.71498966217041 2.7528302669525146 -0.0259797852486372 255 255 255
13.287620544433594 3.400519609451294 -0.1308297961950302 255 255 255
13.188698768615723 3.488187074661255 -0.03734081983566284 255 255 255
10.381780624389648 2.76206636428833 -0.06458098441362381 255 255 255
10.312738418579102 2.9229815006256104 -0.012926329858601093 255 255 255
10.403581619262695 2.9307241439819336 0.018516872078180313 255 255 255
10.406643867492676 2.8605005741119385 0.07261238992214203 255 255 255
16.360549926757812 4.547667026519775 -0.07379484176635742 255 255 255
16.335159301757812 4.60737419128418 -0.10708793997764587 255 255 255
10.283939361572266 2.931154727935791 0.022499220445752144 255 255 255
10.471200942993164 3.018752336502075 -0.036566413938999176 255 255 255
10.306829452514648 3.0667622089385986 -0.029811423271894455 255 255 255
10.451423645019531 3.019881248474121 -0.06622057408094406 255 255 255
10.381413459777832 3.101597309112549 -0.14145001769065857 255 255 255
10.29599380493164 3.168174982070923 -0.04576405510306358 255 255 255
10.415111541748047 3.249093532562256 -0.09560643881559372 255 255 255
16.040048599243164 5.039033889770508 -0.1954851895570755 255 255 255
16.147123336791992 4.956414699554443 -0.19539685547351837 255 255 255
16.208810806274414 5.039094924926758 -0.1854855716228485 255 255 255
16.179336547851562 5.166745185852051 -0.18503437936306 255 255 255
16.244707107543945 5.180221080780029 -0.13569733500480652 255 255 255
16.102458953857422 5.244819641113281 -0.13562078773975372 255 255 255
16.182340621948242 5.344354152679443 -0.2295513153076172 255 255 255
16.077816009521484 5.34066915512085 -0.22352106869220734 255 255 255
16.145702362060547 5.432599067687988 -0.19515518844127655 255 255 255
16.349077224731445 5.468580722808838 -0.14581923186779022 255 255 255
16.373414993286133 5.535319805145264 -0.08516761660575867 255 255 255
16.261184692382812 5.755981922149658 -0.07054366916418076 255 255 255
16.45132064819336 5.714391708374023 -0.20938162505626678 255 255 255
16.490449905395508 5.8266730308532715 -0.1359984427690506 255 255 255
16.499000549316406 5.865865707397461 -0.1658443808555603 255 255 255
16.46820831298828 5.846207618713379 -0.19700288772583008 255 255 255
11.01027774810791 3.9770121574401855 -0.028254006057977676 255 255 255
10.952108383178711 4.012160778045654 -0.02431933581829071 255 255 255
16.621906280517578 6.015937805175781 -0.1416197270154953 255 255 255
10.873446464538574 4.023904323577881 -0.07716484367847443 255 255 255
10.5958833694458 4.024880886077881 -0.03341732919216156 255 255 255
10.688486099243164 4.103200912475586 -0.08972230553627014 255 255 255
10.618453025817871 4.189986705780029 -0.00850085448473692 255 255 255
10.638860702514648 4.1512932777404785 0.026664750650525093 255 255 255
10.597686767578125 4.060454845428467 -0.06701172143220901 255 255 255
10.452727317810059 4.143767356872559 0.008238455280661583 255 255 255
10.768768310546875 4.339865207672119 0.021162914112210274 255 255 255
10.572090148925781 4.244264125823975 -0.05861314758658409 255 255 255
10.72852897644043 4.369593620300293 -0.037858571857213974 255 255 255
10.474366188049316 4.2283830642700195 -0.020504463464021683 255 255 255
10.377856254577637 4.204347610473633 -0.03741084411740303 255 255 255
10.408937454223633 4.284625053405762 -0.03097360022366047 255 255 255
10.456230163574219 4.31254243850708 -0.02708367258310318 255 255 255
17.01230812072754 7.131998062133789 -0.20266829431056976 255 255 255
17.096435546875 7.298264503479004 -0.20043174922466278 255 255 255
17.215848922729492 7.2832818031311035 -0.19701527059078217 255 255 255
17.232284545898438 7.431354999542236 -0.19759801030158997 255 255 255
10.906229972839355 4.697174072265625 0.05136530101299286 255 255 255
17.29621124267578 7.535651206970215 -0.16159754991531372 255 255 255
10.969075202941895 4.753213882446289 -0.07614172250032425 255 255 255
11.001138687133789 4.8881049156188965 -0.022284656763076782 255 255 255
17.383302688598633 7.7886857986450195 -0.17448493838310242 255 255 255
10.756400108337402 4.967042446136475 -0.0742177665233612 255 255 255
17.443180084228516 7.9413604736328125 -0.19438084959983826 255 255 255
17.553390502929688 8.008355140686035 -0.2263423353433609 255 255 255
17.582487106323242 8.18264102935791 -0.26889568567276 255 255 255
17.643266677856445 8.242664337158203 -0.24871478974819183 255 255 255
17.69542121887207 8.274234771728516 -0.18403124809265137 255 255 255
17.58562469482422 8.311663627624512 -0.1473236382007599 255 255 255
17.36810874938965 8.320653915405273 -0.15875014662742615 255 255 255
17.292692184448242 8.318389892578125 -0.26722732186317444 255 255 255
7.315906524658203 3.6050660610198975 -0.03152185678482056 255 255 255
7.2847580909729 3.6118547916412354 0.006634954828768969 255 255 255
7.313272953033447 3.602543830871582 0.03251504525542259 255 255 255
7.3251214027404785 3.7925474643707275 0.00143100181594491 255 255 255
7.24313497543335 3.8445770740509033 0.09013554453849792 255 255 255
7.26158332824707 3.6985504627227783 -0.005101220216602087 255 255 255
7.198207855224609 3.646962881088257 0.04325627535581589 255 255 255
7.2072954177856445 3.725301504135132 0.0014620533911511302 255 255 255
7.177632808685303 3.7751522064208984 0.015146484598517418 255 255 255
7.217286109924316 3.674173593521118 0.09323318302631378 255 255 255
7.166158676147461 3.6586763858795166 0.06518241763114929 255 255 255
7.149653434753418 3.7640302181243896 0.12823592126369476 255 255 255
7.090102672576904 3.8116273880004883 0.05563097447156906 255 255 255
7.096090793609619 3.7773237228393555 -0.04223911091685295 255 255 255
7.132541179656982 3.8321380615234375 0.003984497394412756 255 255 255
6.945643901824951 3.835249900817871 0.040448181331157684 255 255 255
6.994978427886963 3.81240177154541 0.02234702743589878 255 255 255
7.105558395385742 3.9450013637542725 0.01902017742395401 255 255 255
6.9430460929870605 3.911088466644287 0.026061944663524628 255 255 255
6.965553283691406 3.907978057861328 -0.002747663762420416 255 255 255
6.858510494232178 3.843852996826172 0.023376785218715668 255 255 255
6.963586330413818 3.850360155105591 -0.036631133407354355 255 255 255
6.858057975769043 3.969991683959961 0.0152807692065835 255 255 255
6.827304840087891 3.9054648876190186 -0.06312725692987442 255 255 255
6.816774845123291 3.9144318103790283 0.09840722382068634 255 255 255
6.855488300323486 3.955756664276123 0.01694290153682232 255 255 255
6.74430513381958 4.023263454437256 0.03345803543925285 255 255 255
6.758799076080322 3.9482502937316895 0.08187010884284973 255 255 255
6.995937347412109 4.160238742828369 -0.028165647760033607 255 255 255
7.074014663696289 4.203315734863281 0.05529892444610596 255 255 255
6.959989070892334 4.231761932373047 -0.06218281760811806 255 255 255
7.0347723960876465 4.379515171051025 0.06852421909570694 255 255 255
6.988552570343018 4.269176006317139 0.06957485526800156 255 255 255
7.3117241859436035 4.461400032043457 0.07397548109292984 255 255 255
8.46220588684082 5.166663646697998 0.06534162163734436 255 255 255
8.509787559509277 5.284046173095703 0.02443092130124569 255 255 255
8.503314018249512 5.254080772399902 -0.01776711829006672 255 255 255
6.82291316986084 4.250853538513184 0.03325647488236427 255 255 255
8.25302791595459 5.143540382385254 0.02741033397614956 255 255 255
6.464479446411133 4.122965335845947 0.03831436485052109 255 255 255
6.442774772644043 4.106785297393799 0.02396966516971588 255 255 255
6.369864463806152 4.096583366394043 -0.036543335765600204 255 255 255
6.421125411987305 4.177307605743408 0.06992733478546143 255 255 255
6.31721305847168 4.244486331939697 0.13744942843914032 255 255 255
6.208162784576416 4.224970817565918 0.02699163369834423 255 255 255
8.65884780883789 -8.788722038269043 -0.08743611723184586 255 255 255
8.718021392822266 -8.891953468322754 0.013516099192202091 255 255 255
10.010713577270508 -10.135603904724121 -0.03980345278978348 255 255 255
9.689619064331055 -9.791498184204102 -0.06771509349346161 255 255 255
9.708813667297363 -9.65412425994873 -0.11125285178422928 255 255 255
9.631847381591797 -9.67147445678711 -0.09127309173345566 255 255 255
9.698980331420898 -9.622763633728027 -0.07089313119649887 255 255 255
9.688106536865234 -9.510149002075195 -0.09488599747419357 255 255 255
9.077990531921387 -8.810565948486328 -0.058639045804739 255 255 255
9.801582336425781 -9.524022102355957 0.021256353706121445 255 255 255
9.090502738952637 -8.78031063079834 -0.10645859688520432 255 255 255
9.185365676879883 -8.847439765930176 -0.08511662483215332 255 255 255
8.902857780456543 -8.544977188110352 -0.014540096744894981 255 255 255
8.89760684967041 -8.42137336730957 -0.11556652933359146 255 255 255
8.892724990844727 -8.412689208984375 -0.0615600161254406 255 255 255
8.807463645935059 -8.381221771240234 -0.08461976796388626 255 255 255
8.920247077941895 -8.299318313598633 -0.04007308557629585 255 255 255
8.9966459274292 -8.259283065795898 -0.05948641896247864 255 255 255
9.402169227600098 -8.615203857421875 -0.026177968829870224 255 255 255
9.15167236328125 -8.451825141906738 -0.016792792826890945 255 255 255
9.252179145812988 -8.438336372375488 -0.04157385602593422 255 255 255
9.317229270935059 -8.358342170715332 -0.04079066962003708 255 255 255
9.191521644592285 -8.191255569458008 -0.0812256932258606 255 255 255
9.27404499053955 -8.293569564819336 -0.039055921137332916 255 255 255
10.140569686889648 -8.982131958007812 -0.050440166145563126 255 255 255
9.364087104797363 -8.27426528930664 -0.11790629476308823 255 255 255
9.300812721252441 -8.110183715820312 -0.042531415820121765 255 255 255
9.413982391357422 -8.169902801513672 -0.06935851275920868 255 255 255
9.45034408569336 -8.060943603515625 -0.06749777495861053 255 255 255
10.385242462158203 -8.852205276489258 -0.09645996987819672 255 255 255
10.437968254089355 -9.069050788879395 -0.07628495246171951 255 255 255
10.546820640563965 -8.909302711486816 -0.20048788189888 255 255 255
10.643241882324219 -9.073890686035156 -0.07197140902280807 255 255 255
10.640007019042969 -8.965771675109863 0.03312838077545166 255 255 255
10.770687103271484 -8.934642791748047 -0.050145093351602554 255 255 255
10.589115142822266 -8.767775535583496 -0.07104945182800293 255 255 255
10.782234191894531 -8.848785400390625 -0.14387792348861694 255 255 255
11.013516426086426 -9.119521141052246 -0.19376787543296814 255 255 255
11.115376472473145 -9.160045623779297 -0.1604679822921753 255 255 255
13.060345649719238 -10.667606353759766 -0.23329797387123108 255 255 255
13.358232498168945 -10.808122634887695 -0.16779369115829468 255 255 255
13.227724075317383 -10.644988059997559 -0.147601917386055 255 255 255
13.865283966064453 -11.084272384643555 -0.13317473232746124 255 255 255
13.518325805664062 -10.730535507202148 -0.24007998406887054 255 255 255
13.504582405090332 -10.72360610961914 -0.16155365109443665 255 255 255
13.453425407409668 -10.56469440460205 -0.12248023599386215 255 255 255
13.57457160949707 -10.664234161376953 -0.2264624387025833 255 255 255
13.680353164672852 -10.65473461151123 -0.2363559603691101 255 255 255
13.571714401245117 -10.468314170837402 -0.15693485736846924 255 255 255
13.633929252624512 -10.393949508666992 -0.13520365953445435 255 255 255
13.923839569091797 -10.608145713806152 -0.06584379076957703 255 255 255
14.784809112548828 -11.065096855163574 -0.1864558756351471 255 255 255
14.567997932434082 -10.885622024536133 -0.19788360595703125 255 255 255
14.973592758178711 -11.05977725982666 -0.19339197874069214 255 255 255
15.017407417297363 -11.037025451660156 -0.16964727640151978 255 255 255
14.817038536071777 -10.938108444213867 -0.19983863830566406 255 255 255
14.917654991149902 -10.826397895812988 -0.11714223027229309 255 255 255
15.715086936950684 -11.319690704345703 -0.1503707617521286 255 255 255
17.15901756286621 -12.346802711486816 -0.28375136852264404 255 255 255
17.135242462158203 -12.185646057128906 -0.24860569834709167 255 255 255
17.32353973388672 -12.197944641113281 -0.21736842393875122 255 255 255
17.60991096496582 -12.490391731262207 -0.28494787216186523 255 255 255
17.51992416381836 -12.354057312011719 -0.26959848403930664 255 255 255
19.30891990661621 -13.485010147094727 -0.2534961402416229 255 255 255
19.428728103637695 -13.42821216583252 -0.29461541771888733 255 255 255
19.485973358154297 -13.446161270141602 -0.2792084217071533 255 255 255
19.014514923095703 -13.020099639892578 -0.3009946942329407 255 255 255
18.870859146118164 -12.762381553649902 -0.27131137251853943 255 255 255
18.04289436340332 -12.165178298950195 -0.267924040555954 255 255 255
20.464954376220703 -13.776902198791504 -0.37213030457496643 255 255 255
20.103973388671875 -13.43713092803955 -0.29737409949302673 255 255 255
20.246477127075195 -13.36833381652832 -0.28931695222854614 255 255 255
20.708824157714844 -13.612549781799316 -0.3317635655403137 255 255 255
21.158267974853516 -13.864054679870605 -0.26020675897598267 255 255 255
21.55917739868164 -13.976704597473145 -0.42835569381713867 255 255 255
21.642744064331055 -14.017157554626465 -0.3429825007915497 255 255 255
22.449840545654297 -14.258543014526367 -0.4050426185131073 255 255 255
22.031688690185547 -14.026928901672363 -0.31717538833618164 255 255 255
23.164134979248047 -14.713664054870605 -0.290767639875412 255 255 255
23.871315002441406 -15.019895553588867 -0.3726097345352173 255 255 255
23.531564712524414 -14.645029067993164 -0.39381611347198486 255 255 255
23.80547332763672 -14.739974975585938 -0.32787469029426575 255 255 255
23.789216995239258 -14.711294174194336 -0.3666315972805023 255 255 255
25.855430603027344 -15.91891098022461 -0.5033233165740967 255 255 255
26.351909637451172 -16.04510498046875 -0.518239438533783 255 255 255
27.036436080932617 -16.28145408630371 -0.41523605585098267 255 255 255
27.720516204833984 -16.65821075439453 -0.4804837107658386 255 255 255
28.24858283996582 -16.949182510375977 -0.5107598304748535 255 255 255
28.433534622192383 -16.840269088745117 -0.5791124105453491 255 255 255
31.4466552734375 -18.59388542175293 -0.44670748710632324 255 255 255
31.586618423461914 -18.463041305541992 -0.5963252782821655 255 255 255
31.71344566345215 -18.45269203186035 -0.5752527713775635 255 255 255
32.24766540527344 -18.609027862548828 -0.5941398739814758 255 255 255
32.3049430847168 -18.516990661621094 -0.515304446220398 255 255 255
18.277141571044922 -10.12350845336914 -0.26651740074157715 255 255 255
18.307771682739258 -10.087239265441895 -0.23112276196479797 255 255 255
18.312089920043945 -10.041498184204102 -0.27021607756614685 255 255 255
18.424047470092773 -9.945358276367188 -0.22666297852993011 255 255 255
18.37039566040039 -9.857126235961914 -0.2532603144645691 255 255 255
18.332279205322266 -9.798531532287598 -0.22817015647888184 255 255 255
18.486862182617188 -9.780539512634277 -0.18073667585849762 255 255 255
18.484712600708008 -9.710561752319336 -0.18575040996074677 255 255 255
18.546104431152344 -9.76965045928955 -0.1869831383228302 255 255 255
22.765491485595703 -11.629254341125488 -0.31739866733551025 255 255 255
22.95590591430664 -11.627243995666504 -0.3338843882083893 255 255 255
23.077804565429688 -11.641135215759277 -0.3147709369659424 255 255 255
51.38014221191406 -25.34098243713379 -1.0425870418548584 255 255 255
51.35485076904297 -24.835615158081055 -1.0310882329940796 255 255 255
51.46700668334961 -24.75922966003418 -0.9501964449882507 255 255 255
51.50306701660156 -24.57628059387207 -1.0164626836776733 255 255 255
51.7975959777832 -24.553396224975586 -1.0553234815597534 255 255 255
51.77267074584961 -24.377262115478516 -1.0208306312561035 255 255 255
51.98841094970703 -24.2017822265625 -0.9913746118545532 255 255 255
51.96322250366211 -21.48224449157715 -1.0533545017242432 255 255 255
52.05145263671875 -21.30458641052246 -0.9677814841270447 255 255 255
57.53171157836914 -23.06536293029785 -1.2098674774169922 255 255 255
56.918392181396484 -21.726633071899414 -1.019934892654419 255 255 255
55.64964294433594 -20.892671585083008 -0.9871187806129456 255 255 255
55.387474060058594 -20.704849243164062 -1.0673946142196655 255 255 255
37.89683151245117 -13.679913520812988 -0.6232095956802368 255 255 255
37.970767974853516 -13.606722831726074 -0.6620007157325745 255 255 255
38.287662506103516 -13.512216567993164 -0.6840988993644714 255 255 255
37.948158264160156 -13.27074909210205 -0.5978232026100159 255 255 255
31.16022491455078 -10.466278076171875 -0.480967253446579 255 255 255
31.237340927124023 -10.487451553344727 -0.43510833382606506 255 255 255
30.958703994750977 -10.28101634979248 -0.5123951435089111 255 255 255
30.832199096679688 -9.967084884643555 -0.4071749746799469 255 255 255
30.936830520629883 -9.745391845703125 -0.43051835894584656 255 255 255
31.012235641479492 -9.807466506958008 -0.5248712301254272 255 255 255
31.10376739501953 -9.500686645507812 -0.4723511040210724 255 255 255
31.315614700317383 -9.432611465454102 -0.4695996046066284 255 255 255
31.385648727416992 -9.424589157104492 -0.459802508354187 255 255 255
31.30162239074707 -9.12906551361084 -0.5162709951400757 255 255 255
31.41486930847168 -9.184220314025879 -0.44395989179611206 255 255 255
39.492774963378906 -11.226051330566406 -0.7283473610877991 255 255 255
38.86982727050781 -10.977827072143555 -0.6319159865379333 255 255 255
38.226680755615234 -10.568440437316895 -0.6182752251625061 255 255 255
37.41817855834961 -10.23795223236084 -0.6138513088226318 255 255 255
36.91248321533203 -9.97752857208252 -0.6795267462730408 255 255 255
36.03299331665039 -9.661845207214355 -0.6365966200828552 255 255 255
35.4383430480957 -9.365117073059082 -0.5417981743812561 255 255 255
34.89412307739258 -9.105632781982422 -0.5078032612800598 255 255 255
34.49711990356445 -8.81216812133789 -0.5841870307922363 255 255 255
34.179439544677734 -8.674747467041016 -0.5218366384506226 255 255 255
33.449790954589844 -8.44836139678955 -0.5661681294441223 255 255 255
33.362998962402344 -8.23039722442627 -0.5656342506408691 255 255 255
33.26950454711914 -8.099550247192383 -0.5251696109771729 255 255 255
33.333248138427734 -8.090483665466309 -0.4374772608280182 255 255 255
33.095706939697266 -7.8574700355529785 -0.49159225821495056 255 255 255
32.71609115600586 -7.706334590911865 -0.44760891795158386 255 255 255
32.243717193603516 -7.467244625091553 -0.49325793981552124 255 255 255
30.063167572021484 -7.006369113922119 -0.49779459834098816 255 255 255
29.596460342407227 -6.799935340881348 -0.4187491238117218 255 255 255
29.252849578857422 -6.521273612976074 -0.40509870648384094 255 255 255
27.909135818481445 -6.01695442199707 -0.3733801543712616 255 255 255
27.893550872802734 -5.975498676300049 -0.401957631111145 255 255 255
27.34111213684082 -5.831258773803711 -0.38017138838768005 255 255 255
27.146343231201172 -5.621940612792969 -0.3931882083415985 255 255 255
27.24428939819336 -5.618739128112793 -0.4645199775695801 255 255 255
27.29279899597168 -5.380123615264893 -0.3335559070110321 255 255 255
27.223554611206055 -5.311483383178711 -0.20878112316131592 255 255 255
27.243896484375 -5.296967029571533 -0.38377535343170166 255 255 255
27.31941795349121 -5.1331963539123535 -0.28259873390197754 255 255 255
27.225831985473633 -5.159389495849609 -0.337284117937088 255 255 255
27.3516902923584 -5.090628623962402 -0.3024452328681946 255 255 255
14.294266700744629 -2.6294498443603516 -0.08448821306228638 255 255 255
14.285547256469727 -2.533674716949463 -0.0681295320391655 255 255 255
14.264768600463867 -2.505871057510376 -0.048770442605018616 255 255 255
14.13560676574707 -2.3802225589752197 -0.07049418240785599 255 255 255
14.150375366210938 -2.428842306137085 -0.10360309481620789 255 255 255
14.023579597473145 -2.4259824752807617 -0.08443934470415115 255 255 255
14.013664245605469 -2.347813606262207 -0.09832752496004105 255 255 255
13.95173454284668 -2.275686740875244 -0.14954142272472382 255 255 255
13.978439331054688 -2.1861531734466553 -0.00479957927018404 255 255 255
13.957695007324219 -2.1148521900177 -0.09837939590215683 255 255 255
13.879841804504395 -2.032273292541504 -0.08878110349178314 255 255 255
13.851865768432617 -2.042527437210083 -0.1590120792388916 255 255 255
13.908730506896973 -2.0253958702087402 -0.09106747061014175 255 255 255
13.82155704498291 -1.9839271306991577 -0.12829594314098358 255 255 255
13.906781196594238 -2.011345863342285 -0.13657355308532715 255 255 255
13.976704597473145 -1.7839809656143188 -0.1045428141951561 255 255 255
13.906550407409668 -1.80289888381958 -0.11843380331993103 255 255 255
13.92874526977539 -1.7753177881240845 -0.013037529774010181 255 255 255
13.95308780670166 -1.7020739316940308 -0.03602933883666992 255 255 255
20.72330093383789 -2.5342905521392822 -0.08255035430192947 255 255 255
20.494029998779297 -2.437227964401245 -0.2310703545808792 255 255 255
20.503713607788086 -2.4719581604003906 -0.23704613745212555 255 255 255
20.37822723388672 -2.3622894287109375 -0.2455841302871704 255 255 255
20.241363525390625 -2.280400037765503 -0.25874999165534973 255 255 255
22.72750473022461 -2.5316250324249268 -0.30294448137283325 255 255 255
22.82746124267578 -2.4922561645507812 -0.32676950097084045 255 255 255
22.681955337524414 -2.348066806793213 -0.24113647639751434 255 255 255
21.0606746673584 -2.118619680404663 -0.24711176753044128 255 255 255
23.022066116333008 -2.24807071685791 -0.380776584148407 255 255 255
18.773679733276367 -1.835248351097107 -0.34612318873405457 255 255 255
18.648147583007812 -1.7033058404922485 -0.2868131101131439 255 255 255
18.49028968811035 -1.5899591445922852 -0.18611079454421997 255 255 255
18.43212890625 -1.568620204925537 -0.2688099145889282 255 255 255
18.43717384338379 -1.551530361175537 -0.2784944474697113 255 255 255
18.482393264770508 -1.5156503915786743 -0.24544785916805267 255 255 255
18.429689407348633 -1.402514934539795 -0.32177862524986267 255 255 255
18.621164321899414 -1.3535597324371338 -0.3061003088951111 255 255 255
21.338953018188477 -1.4962613582611084 -0.3623502850532532 255 255 255
21.379779815673828 -1.4649006128311157 -0.3723365068435669 255 255 255
21.689741134643555 -1.488682746887207 -0.4287737309932709 255 255 255
21.368465423583984 -1.3550350666046143 -0.38915565609931946 255 255 255
21.393484115600586 -1.2624315023422241 -0.2749439477920532 255 255 255
21.637239456176758 -1.186130404472351 -0.33594706654548645 255 255 255
17.317602157592773 -0.8873798847198486 -0.27786681056022644 255 255 255
17.1935977935791 -0.8710845112800598 -0.19206340610980988 255 255 255
17.020095825195312 -0.7705473303794861 -0.2419089376926422 255 255 255
16.96105194091797 -0.7669477462768555 -0.13885225355625153 255 255 255
16.7532901763916 -0.6581485271453857 -0.2110215276479721 255 255 255
16.636642456054688 -0.5366678237915039 -0.2545159161090851 255 255 255
23.304439544677734 -0.9253569841384888 -0.45517468452453613 255 255 255
18.476980209350586 -0.5736514925956726 -0.3243502676486969 255 255 255
18.772201538085938 -0.4510023891925812 -0.3015112578868866 255 255 255
18.497455596923828 -0.5055269002914429 -0.2981998324394226 255 255 255
18.563472747802734 -0.4213138520717621 -0.2608993649482727 255 255 255
18.563522338867188 -0.32743388414382935 -0.20708520710468292 255 255 255
18.030237197875977 -0.2992231249809265 -0.18129384517669678 255 255 255
17.97594451904297 -0.1497218757867813 -0.3933810889720917 255 255 255
17.95326042175293 -0.21130330860614777 -0.21640197932720184 255 255 255
17.918655395507812 -0.160365030169487 -0.326363205909729 255 255 255
17.955589294433594 -0.20500580966472626 -0.26272693276405334 255 255 255
17.92607879638672 -0.025511082261800766 -0.27824828028678894 255 255 255
18.215749740600586 -0.01944936439394951 -0.3726128935813904 255 255 255
18.06084442138672 0.1343134492635727 -0.24797579646110535 255 255 255
18.084407806396484 0.222418874502182 -0.2895275354385376 255 255 255
18.18325424194336 0.2275313436985016 -0.23189125955104828 255 255 255
18.1679744720459 0.22482913732528687 -0.24551571905612946 255 255 255
17.97233009338379 0.2371927946805954 -0.2676403522491455 255 255 255
17.869203567504883 0.39072829484939575 -0.2742775082588196 255 255 255
17.816404342651367 0.3442101776599884 -0.2221096009016037 255 255 255
17.714258193969727 0.47972941398620605 -0.2488216906785965 255 255 255
17.682973861694336 0.48544132709503174 -0.21876826882362366 255 255 255
17.756473541259766 0.6537544131278992 -0.25715357065200806 255 255 255
17.714990615844727 0.5092582106590271 -0.2212590128183365 255 255 255
17.761579513549805 0.6702191233634949 -0.3663669526576996 255 255 255
17.3103084564209 0.758152186870575 -0.25186288356781006 255 255 255
17.3507022857666 0.7260065078735352 -0.2060464769601822 255 255 255
17.55805015563965 0.8502181172370911 -0.1904924213886261 255 255 255
17.724609375 0.8443507552146912 -0.19914685189723969 255 255 255
17.658422470092773 0.875771701335907 -0.27890637516975403 255 255 255
18.31885528564453 0.9851343035697937 -0.28165656328201294 255 255 255
18.135116577148438 1.0045890808105469 -0.18195918202400208 255 255 255
17.69832420349121 1.101686716079712 -0.18419824540615082 255 255 255
17.612342834472656 1.1012500524520874 -0.16257745027542114 255 255 255
17.630962371826172 1.2036060094833374 -0.4237382113933563 255 255 255
17.58521270751953 1.2656832933425903 -0.22648967802524567 255 255 255
17.374046325683594 1.2287142276763916 -0.28677642345428467 255 255 255
17.341590881347656 1.2311489582061768 -0.30321696400642395 255 255 255
17.373567581176758 1.3947266340255737 -0.2860991358757019 255 255 255
17.930147171020508 1.481866478919983 -0.21091912686824799 255 255 255
18.037418365478516 1.5669125318527222 -0.31641262769699097 255 255 255
18.05584716796875 1.5555905103683472 -0.2402043491601944 255 255 255
18.18332862854004 1.7058132886886597 -0.31031298637390137 255 255 255
17.64943504333496 1.7421720027923584 -0.2222522646188736 255 255 255
15.577570915222168 1.5061144828796387 -0.1997693032026291 255 255 255
15.389195442199707 1.5308524370193481 -0.11540602892637253 255 255 255
15.431538581848145 1.5211942195892334 -0.2776418626308441 255 255 255
22.106399536132812 2.322551727294922 -0.3439655900001526 255 255 255
22.015827178955078 2.348580837249756 -0.4190387725830078 255 255 255
15.629925727844238 1.7739946842193604 -0.1518186330795288 255 255 255
15.484179496765137 1.776338815689087 -0.09949436038732529 255 255 255
21.197633743286133 2.5394232273101807 -0.3333774209022522 255 255 255
21.063650131225586 2.5288877487182617 -0.3177737593650818 255 255 255
20.955970764160156 2.6933298110961914 -0.3313477635383606 255 255 255
20.7681941986084 2.789616823196411 -0.4203992486000061 255 255 255
20.690616607666016 2.685786247253418 -0.32437634468078613 255 255 255
20.68228530883789 2.7167117595672607 -0.2843368947505951 255 255 255
20.452537536621094 2.839165210723877 -0.3442150056362152 255 255 255
20.39107322692871 2.819613456726074 -0.31618377566337585 255 255 255
20.311540603637695 2.9341721534729004 -0.36259153485298157 255 255 255
20.161849975585938 2.9025256633758545 -0.23385626077651978 255 255 255
20.12725067138672 3.0034079551696777 -0.27377647161483765 255 255 255
19.989948272705078 3.142759084701538 -0.36241766810417175 255 255 255
19.879053115844727 3.1881215572357178 -0.26012909412384033 255 255 255
19.887712478637695 3.082662582397461 -0.35648664832115173 255 255 255
19.649497985839844 3.150747776031494 -0.4537261426448822 255 255 255
19.696062088012695 3.2688684463500977 -0.23877637088298798 255 255 255
19.510597229003906 3.3095312118530273 -0.24986496567726135 255 255 255
19.38848114013672 3.3777236938476562 -0.22624586522579193 255 255 255
19.343738555908203 3.2945022583007812 -0.2837548851966858 255 255 255
19.227445602416992 3.3539676666259766 -0.32460248470306396 255 255 255
19.11220932006836 3.4897589683532715 -0.3272695541381836 255 255 255
19.04725456237793 3.467334508895874 -0.3055921196937561 255 255 255
18.967966079711914 3.5321640968322754 -0.27401646971702576 255 255 255
18.84870147705078 3.4924769401550293 -0.2538967728614807 255 255 255
18.872766494750977 3.642292022705078 -0.2873202860355377 255 255 255
18.65986442565918 3.5991766452789307 -0.302621066570282 255 255 255
18.705020904541016 3.6089000701904297 -0.24342818558216095 255 255 255
18.522258758544922 3.6315746307373047 -0.28703364729881287 255 255 255
18.45356559753418 3.7139933109283447 -0.252255916595459 255 255 255
13.566327095031738 2.806238889694214 -0.181700199842453 255 255 255
13.684709548950195 2.859924554824829 -0.16720691323280334 255 255 255
13.844639778137207 3.005023717880249 -0.15878911316394806 255 255 255
13.848496437072754 2.9874486923217773 -0.19737102091312408 255 255 255
13.7591552734375 3.018003225326538 -0.10542451590299606 255 255 255
13.742425918579102 3.0860884189605713 -0.1835068166255951 255 255 255
13.893062591552734 3.1068356037139893 -0.0897459089756012 255 255 255
13.886114120483398 3.0232629776000977 -0.15222105383872986 255 255 255
17.748184204101562 4.093926906585693 -0.28804072737693787 255 255 255
11.094657897949219 2.6529839038848877 -0.03149552270770073 255 255 255
11.168131828308105 2.705726385116577 -0.012559511698782444 255 255 255
11.071491241455078 2.670397996902466 -0.057629406452178955 255 255 255
13.642378807067871 3.3028295040130615 -0.15050475299358368 255 255 255
10.852614402770996 2.695566177368164 -0.1857728809118271 255 255 255
10.866048812866211 2.633856773376465 -0.07495370507240295 255 255 255
10.678178787231445 2.7081801891326904 -0.13424763083457947 255 255 255
10.774272918701172 2.680396556854248 -0.0722956508398056 255 255 255
10.821554183959961 2.7598252296447754 -0.03521711379289627 255 255 255
10.633200645446777 2.825984239578247 -0.04673880711197853 255 255 255
10.550378799438477 2.774540662765503 -0.06813737750053406 255 255 255
10.43721866607666 2.6980133056640625 -0.07941760867834091 255 255 255
10.51131534576416 2.8700339794158936 0.016132794320583344 255 255 255
10.373614311218262 2.811455726623535 -0.06750968843698502 255 255 255
10.393879890441895 2.8609745502471924 -0.06911322474479675 255 255 255
10.393733978271484 2.85270619392395 -0.08462413400411606 255 255 255
16.367734909057617 4.652693271636963 -0.2228921353816986 255 255 255
16.368398666381836 4.7050557136535645 -0.28079062700271606 255 255 255
16.307113647460938 4.6880693435668945 -0.301411896944046 255 255 255
10.417462348937988 3.0484578609466553 -0.06777925789356232 255 255 255
10.400506019592285 3.0677175521850586 -0.1277436912059784 255 255 255
10.29397201538086 3.1727044582366943 -0.04585481807589531 255 255 255
15.911587715148926 4.882810592651367 -0.24772116541862488 255 255 255
13.040753364562988 4.026956558227539 -0.18490231037139893 255 255 255
16.087203979492188 4.9415717124938965 -0.26986321806907654 255 255 255
15.969274520874023 4.931061267852783 -0.20219236612319946 255 255 255
16.128698348999023 5.165944576263428 -0.17005816102027893 255 255 255
16.115262985229492 5.242875576019287 -0.17495904862880707 255 255 255
16.07945442199707 5.261092185974121 -0.3117213547229767 255 255 255
16.164487838745117 5.262354850769043 -0.2709231972694397 255 255 255
16.254182815551758 5.275578022003174 -0.2178516834974289 255 255 255
16.176198959350586 5.317263126373291 -0.24917475879192352 255 255 255
16.104318618774414 5.42141580581665 -0.23138605058193207 255 255 255
16.21613121032715 5.458987236022949 -0.1877245157957077 255 255 255
16.281692504882812 5.603448867797852 -0.20214779675006866 255 255 255
16.418420791625977 5.601357936859131 -0.2952854037284851 255 255 255
16.46973419189453 5.701413631439209 -0.17455890774726868 255 255 255
16.425350189208984 5.775430202484131 -0.2866581082344055 255 255 255
16.34471893310547 5.864436626434326 -0.32583579421043396 255 255 255
16.45931053161621 5.956087112426758 -0.28320983052253723 255 255 255
16.51502799987793 5.989312648773193 -0.2298608422279358 255 255 255
16.579120635986328 5.988712787628174 -0.3113829791545868 255 255 255
16.593454360961914 5.975295543670654 -0.2804143726825714 255 255 255
16.63624382019043 6.146543979644775 -0.2665875256061554 255 255 255
16.66546630859375 6.273595809936523 -0.24111005663871765 255 255 255
10.968452453613281 4.161073207855225 -0.14946047961711884 255 255 255
10.688405990600586 4.101731300354004 -0.10482227802276611 255 255 255
10.859434127807617 4.083795070648193 -0.09054780751466751 255 255 255
10.780498504638672 4.16245698928833 -0.09392154961824417 255 255 255
10.652456283569336 4.123879909515381 -0.0019081169739365578 255 255 255
10.611961364746094 4.27730131149292 -0.04130005091428757 255 255 255
10.55379867553711 4.229037761688232 -0.1783120334148407 255 255 255
10.815115928649902 4.346181392669678 -0.0751936286687851 255 255 255
10.625593185424805 4.2448930740356445 -0.04778163880109787 255 255 255
10.484549522399902 4.135270595550537 -0.09849350899457932 255 255 255
10.532917976379395 4.336400985717773 -0.12374051660299301 255 255 255
10.4896879196167 4.367347717285156 -0.1594391018152237 255 255 255
10.390456199645996 4.253499507904053 -0.006182888522744179 255 255 255
10.421896934509277 4.391144752502441 -0.1027233898639679 255 255 255
14.703225135803223 6.234807014465332 -0.19122719764709473 255 255 255
14.784065246582031 6.3567304611206055 -0.1988394856452942 255 255 255
14.958596229553223 6.4889116287231445 -0.27400219440460205 255 255 255
15.200608253479004 6.608770847320557 -0.23370641469955444 255 255 255
17.325885772705078 7.623960494995117 -0.24584421515464783 255 255 255
17.272661209106445 7.583032608032227 -0.3418534994125366 255 255 255
17.346628189086914 7.804256439208984 -0.33509892225265503 255 255 255
17.387178421020508 7.847984790802002 -0.26109111309051514 255 255 255
17.425689697265625 7.887763977050781 -0.22513507306575775 255 255 255
17.392833709716797 8.016497611999512 -0.42496079206466675 255 255 255
17.588886260986328 8.058159828186035 -0.24910740554332733 255 255 255
17.586864471435547 8.168140411376953 -0.33534669876098633 255 255 255
17.466882705688477 8.212743759155273 -0.3233959674835205 255 255 255
7.834609508514404 3.7377936840057373 -0.11982008814811707 255 255 255
17.592809677124023 8.26572036743164 -0.3391770124435425 255 255 255
7.595178127288818 3.6250975131988525 0.0023456739727407694 255 255 255
7.371453762054443 3.459181070327759 0.0070646218955516815 255 255 255
7.625160217285156 3.7170300483703613 -0.02264084853231907 255 255 255
7.7644734382629395 3.637892961502075 -0.05970505625009537 255 255 255
7.540500640869141 3.6109156608581543 -0.022950515151023865 255 255 255
7.487410545349121 3.8322956562042236 -0.0016618015943095088 255 255 255
7.620742321014404 3.8198771476745605 -0.030853573232889175 255 255 255
7.52150821685791 3.8156256675720215 0.0858253613114357 255 255 255
7.508960723876953 3.6983914375305176 -0.07346979528665543 255 255 255
7.211010932922363 3.6744446754455566 -0.020125923678278923 255 255 255
7.292672634124756 3.775108814239502 -0.1041957288980484 255 255 255
7.252854347229004 3.704807758331299 -0.05933191627264023 255 255 255
7.169532299041748 3.7357614040374756 0.11881645768880844 255 255 255
7.154911518096924 3.798560857772827 0.08186279237270355 255 255 255
7.274332046508789 3.877908945083618 -0.0818837434053421 255 255 255
7.07283878326416 3.733550786972046 -0.07044748216867447 255 255 255
7.365431785583496 3.9656147956848145 0.03130818158388138 255 255 255
7.150525093078613 3.8935611248016357 0.04519730806350708 255 255 255
7.097869873046875 3.8965697288513184 -0.013712586835026741 255 255 255
7.0722856521606445 3.8204128742218018 0.056923724710941315 255 255 255
7.0166802406311035 3.8953611850738525 0.026668597012758255 255 255 255
7.021570205688477 3.8926730155944824 -0.09255247563123703 255 255 255
6.915528297424316 3.84004545211792 0.001986151095479727 255 255 255
6.9451518058776855 3.8462913036346436 -0.010805586352944374 255 255 255
6.931960105895996 3.936889886856079 0.0870315358042717 255 255 255
6.905818939208984 3.8896377086639404 0.027346840128302574 255 255 255
7.014618396759033 4.092815399169922 0.006035303231328726 255 255 255
6.985377311706543 3.9968550205230713 -0.0013855636352673173 255 255 255
7.055020809173584 3.95503306388855 -0.10285277664661407 255 255 255
6.810312747955322 4.0500969886779785 0.03127339109778404 255 255 255
6.861018657684326 3.9520649909973145 -0.06803735345602036 255 255 255
6.9910407066345215 4.095826148986816 -0.035286419093608856 255 255 255
6.937771320343018 4.153982639312744 0.016668273136019707 255 255 255
6.91375732421875 4.149065017700195 0.04489869624376297 255 255 255
6.893653392791748 4.2514214515686035 -0.0602729469537735 255 255 255
6.990597248077393 4.246129512786865 -0.025061894208192825 255 255 255
8.887290954589844 5.525711536407471 -0.18954885005950928 255 255 255
6.860537052154541 4.189690589904785 0.028714586049318314 255 255 255
7.1664252281188965 4.544771671295166 -0.0888369157910347 255 255 255
8.530665397644043 5.293001651763916 -0.1078849509358406 255 255 255
8.5551118850708 5.333469390869141 -0.05638958141207695 255 255 255
8.511263847351074 5.308032989501953 -0.06400256603956223 255 255 255
8.420893669128418 5.511429786682129 -0.04213525354862213 255 255 255
8.285367965698242 5.315653324127197 0.021700432524085045 255 255 255
6.446923732757568 4.12569522857666 0.010180553421378136 255 255 255
6.5331645011901855 4.264616012573242 0.1335790604352951 255 255 255
6.355899333953857 4.157927513122559 -0.030507512390613556 255 255 255
6.358704090118408 4.1241912841796875 0.052332405000925064 255 255 255
6.334770679473877 4.186339378356934 -0.04545740783214569 255 255 255
6.3852386474609375 4.231805324554443 -0.004707962740212679 255 255 255
8.920145988464355 -8.990462303161621 -0.2074664980173111 255 255 255
8.713011741638184 -8.830357551574707 -0.045763902366161346 255 255 255
10.433792114257812 -10.470017433166504 -0.19217567145824432 255 255 255
9.860939025878906 -9.935478210449219 -0.20097211003303528 255 255 255
9.77376937866211 -9.794150352478027 -0.11462394148111343 255 255 255
9.728924751281738 -9.744175910949707 -0.08102156221866608 255 255 255
9.600350379943848 -9.627406120300293 -0.19692417979240417 255 255 255
9.673236846923828 -9.611557006835938 -0.10011501610279083 255 255 255
9.641340255737305 -9.412272453308105 -0.1553107500076294 255 255 255
9.411099433898926 -9.205551147460938 -0.1725252866744995 255 255 255
9.234842300415039 -8.973139762878418 -0.12791088223457336 255 255 255
8.787529945373535 -8.501812934875488 -0.23163877427577972 255 255 255
8.850486755371094 -8.398283958435059 -0.13901002705097198 255 255 255
8.779729843139648 -8.377145767211914 -0.2106959968805313 255 255 255
8.989213943481445 -8.47530460357666 -0.2038550078868866 255 255 255
8.971508026123047 -8.40451431274414 -0.09510929137468338 255 255 255
9.049247741699219 -8.405610084533691 -0.09178033471107483 255 255 255
8.94019889831543 -8.257627487182617 -0.12674637138843536 255 255 255
9.12679386138916 -8.43854808807373 -0.09398915618658066 255 255 255
9.121994018554688 -8.348296165466309 -0.12206177413463593 255 255 255
9.127827644348145 -8.329959869384766 -0.13754674792289734 255 255 255
9.284621238708496 -8.356471061706543 -0.2043481320142746 255 255 255
9.445747375488281 -8.473362922668457 -0.1696508377790451 255 255 255
9.271251678466797 -8.350707054138184 -0.1217542365193367 255 255 255
9.446884155273438 -8.27105712890625 -0.06176362186670303 255 255 255
9.414612770080566 -8.380697250366211 -0.17896762490272522 255 255 255
9.484487533569336 -8.310792922973633 -0.17753605544567108 255 255 255
9.496431350708008 -8.321927070617676 -0.08857109397649765 255 255 255
10.528753280639648 -9.016070365905762 -0.1239251047372818 255 255 255
10.394556999206543 -8.95688247680664 -0.25304901599884033 255 255 255
10.28157901763916 -8.788448333740234 -0.06265424191951752 255 255 255
10.515053749084473 -9.011218070983887 -0.19746248424053192 255 255 255
10.758984565734863 -9.101910591125488 -0.243980273604393 255 255 255
10.802721977233887 -9.109874725341797 -0.16050583124160767 255 255 255
10.755191802978516 -8.955103874206543 -0.1664518266916275 255 255 255
11.02258586883545 -9.129555702209473 -0.10575461387634277 255 255 255
11.039093971252441 -9.19143009185791 -0.10573305934667587 255 255 255
11.247743606567383 -9.190400123596191 -0.20378799736499786 255 255 255
11.161409378051758 -9.221677780151367 -0.21396711468696594 255 255 255
14.059187889099121 -11.406624794006348 -0.24738819897174835 255 255 255
13.370304107666016 -10.96125316619873 -0.27296680212020874 255 255 255
13.105596542358398 -10.66494369506836 -0.23031462728977203 255 255 255
13.845046043395996 -11.17918586730957 -0.20861153304576874 255 255 255
13.388760566711426 -10.632271766662598 -0.3035273849964142 255 255 255
13.447257995605469 -10.518082618713379 -0.21730726957321167 255 255 255
13.466801643371582 -10.537819862365723 -0.24905970692634583 255 255 255
13.413267135620117 -10.430750846862793 -0.2500830590724945 255 255 255
13.488930702209473 -10.560733795166016 -0.31212377548217773 255 255 255
13.595504760742188 -10.462684631347656 -0.25260409712791443 255 255 255
13.638605117797852 -10.483017921447754 -0.25479045510292053 255 255 255
13.749608039855957 -10.413966178894043 -0.11710835993289948 255 255 255
13.91537094116211 -10.611812591552734 -0.3050234019756317 255 255 255
13.94841480255127 -10.558246612548828 -0.2631480395793915 255 255 255
14.204133987426758 -10.550930976867676 -0.3167570233345032 255 255 255
14.636296272277832 -10.855624198913574 -0.2231539785861969 255 255 255
14.652440071105957 -11.027202606201172 -0.2549583911895752 255 255 255
14.57052230834961 -10.814875602722168 -0.22857357561588287 255 255 255
14.997617721557617 -11.029228210449219 -0.3293982148170471 255 255 255
15.057921409606934 -10.921112060546875 -0.3125808537006378 255 255 255
15.599298477172852 -11.099028587341309 -0.3022761046886444 255 255 255
15.507290840148926 -11.240306854248047 -0.3077397644519806 255 255 255
15.592974662780762 -11.132068634033203 -0.32220661640167236 255 255 255
16.94001007080078 -11.976086616516113 -0.33066853880882263 255 255 255
17.201086044311523 -12.130887031555176 -0.38720768690109253 255 255 255
17.379507064819336 -12.117412567138672 -0.24443726241588593 255 255 255
17.7383975982666 -12.290119171142578 -0.490131676197052 255 255 255
18.131439208984375 -12.572809219360352 -0.4209982454776764 255 255 255
18.378366470336914 -12.558894157409668 -0.3255016803741455 255 255 255
18.672189712524414 -12.692731857299805 -0.3440157175064087 255 255 255
18.826309204101562 -12.729154586791992 -0.34213778376579285 255 255 255
17.98505401611328 -12.102862358093262 -0.31783825159072876 255 255 255
19.615137100219727 -13.112919807434082 -0.4348662793636322 255 255 255
19.91079330444336 -13.348393440246582 -0.4364398419857025 255 255 255
20.216018676757812 -13.34697151184082 -0.4096808135509491 255 255 255
20.6471004486084 -13.427785873413086 -0.37670859694480896 255 255 255
20.97515296936035 -13.675993919372559 -0.4967539608478546 255 255 255
21.385643005371094 -13.93094539642334 -0.5016348361968994 255 255 255
21.941036224365234 -14.006166458129883 -0.5162497758865356 255 255 255
22.268091201782227 -14.310760498046875 -0.501168429851532 255 255 255
22.724517822265625 -14.38866138458252 -0.5336319804191589 255 255 255
23.26301383972168 -14.680644035339355 -0.5381391644477844 255 255 255
23.66283416748047 -14.838563919067383 -0.5134161710739136 255 255 255
24.16874122619629 -15.125890731811523 -0.5796868801116943 255 255 255
24.6051082611084 -15.226834297180176 -0.6560924053192139 255 255 255
25.265592575073242 -15.5133638381958 -0.6054702997207642 255 255 255
25.766244888305664 -15.733709335327148 -0.5885212421417236 255 255 255
26.326753616333008 -15.97369384765625 -0.590718150138855 255 255 255
26.928882598876953 -16.274517059326172 -0.6007229089736938 255 255 255
27.520099639892578 -16.50987434387207 -0.6409351229667664 255 255 255
28.27394676208496 -16.852306365966797 -0.5841835737228394 255 255 255
28.480865478515625 -16.849594116210938 -0.6730215549468994 255 255 255
28.710847854614258 -16.793113708496094 -0.6505187153816223 255 255 255
31.674625396728516 -18.473114013671875 -0.6764753460884094 255 255 255
31.522613525390625 -18.31682586669922 -0.6777719259262085 255 255 255
32.00130081176758 -18.4129638671875 -0.823325514793396 255 255 255
18.11498260498047 -10.440485954284668 -0.3891446888446808 255 255 255
18.103219985961914 -10.259064674377441 -0.4255053699016571 255 255 255
18.23093605041504 -10.23245906829834 -0.31781962513923645 255 255 255
18.181175231933594 -10.151556968688965 -0.2944083511829376 255 255 255
18.345396041870117 -10.242451667785645 -0.3575155735015869 255 255 255
18.403230667114258 -10.14431095123291 -0.37771937251091003 255 255 255
19.060806274414062 -9.716623306274414 -0.3469969928264618 255 255 255
22.932180404663086 -11.383407592773438 -0.5151209235191345 255 255 255
23.40181541442871 -11.500384330749512 -0.5083216428756714 255 255 255
53.690738677978516 -26.142080307006836 -1.3204410076141357 255 255 255
53.804439544677734 -25.537944793701172 -1.3090832233428955 255 255 255
53.32589340209961 -24.846750259399414 -1.2746541500091553 255 255 255
52.64286422729492 -24.09346580505371 -1.3106399774551392 255 255 255
52.33803939819336 -23.7152156829834 -1.2420371770858765 255 255 255
52.12725067138672 -23.414487838745117 -1.2492486238479614 255 255 255
51.95272445678711 -23.215829849243164 -1.3396506309509277 255 255 255
51.7908821105957 -22.96070098876953 -1.2780860662460327 255 255 255
51.61661911010742 -22.82590103149414 -1.4049522876739502 255 255 255
51.46291732788086 -22.48495101928711 -1.3495497703552246 255 255 255
51.270179748535156 -22.129013061523438 -1.26904296875 255 255 255
51.204708099365234 -21.970130920410156 -1.3394097089767456 255 255 255
51.09970474243164 -21.771724700927734 -1.2105706930160522 255 255 255
50.960716247558594 -21.51469612121582 -1.2455744743347168 255 255 255
51.08150100708008 -21.24936866760254 -1.2777671813964844 255 255 255
50.972251892089844 -21.155908584594727 -1.1566869020462036 255 255 255
50.7685661315918 -20.964445114135742 -1.2623705863952637 255 255 255
50.842063903808594 -20.80780029296875 -1.2337450981140137 255 255 255
50.802207946777344 -20.619434356689453 -1.2582515478134155 255 255 255
50.78878402709961 -20.305221557617188 -1.1500557661056519 255 255 255
50.83622741699219 -20.152755737304688 -1.254839539527893 255 255 255
50.78215026855469 -20.084125518798828 -1.2007499933242798 255 255 255
50.53648376464844 -19.878887176513672 -1.2375223636627197 255 255 255
50.59375 -19.65338897705078 -1.1518833637237549 255 255 255
50.51353073120117 -19.476425170898438 -1.1590194702148438 255 255 255
50.52314376831055 -19.298187255859375 -1.1770285367965698 255 255 255
50.396690368652344 -19.153465270996094 -1.135382890701294 255 255 255
50.45730209350586 -18.959306716918945 -1.136178970336914 255 255 255
50.444000244140625 -18.651948928833008 -1.2222635746002197 255 255 255
38.78866958618164 -14.052395820617676 -0.8465707898139954 255 255 255
