ply
format ascii 1.0
element vertex 690
property float x
property float y
property float z
property uchar red
property uchar green
property uchar blue
end_header
31.19008445739746 -7.165228843688965 -0.7208571434020996 255 255 255
6.51369047164917 0.6812920570373535 -1.3087780475616455 255 255 255
7.39962100982666 3.900653123855591 -0.26658594608306885 255 255 255
24.282394409179688 -10.869532585144043 -1.633514404296875 255 255 255
20.980329513549805 2.4692280292510986 -0.45557188987731934 255 255 255
9.859188079833984 2.7078897953033447 0.29369840025901794 255 255 255
3.1405956745147705 2.0300748348236084 -0.7122164368629456 255 255 255
28.583423614501953 -7.486195087432861 -1.3149288892745972 255 255 255
7.562597274780273 0.7250223755836487 -0.5501073598861694 255 255 255
22.620872497558594 -13.774787902832031 -1.7394688129425049 255 255 255
12.823050498962402 -2.1391096115112305 -1.0383213758468628 255 255 255
10.951148986816406 -8.982904434204102 0.31675413250923157 255 255 255
8.664283752441406 -8.055108070373535 -1.114724040031433 255 255 255
10.608800888061523 4.254138469696045 0.21474707126617432 255 255 255
6.921058177947998 0.5768296718597412 -0.6443795561790466 255 255 255
6.746728897094727 -0.32330766320228577 -1.6476287841796875 255 255 255
8.422060012817383 -1.985717535018921 -1.658369541168213 255 255 255
11.543434143066406 -4.059382915496826 -1.6418017148971558 255 255 255
44.547210693359375 -18.35407257080078 -1.2900023460388184 255 255 255
15.542917251586914 -4.500424385070801 -1.6625516414642334 255 255 255
17.30522918701172 -7.361267566680908 -1.5747896432876587 255 255 255
18.473617553710938 3.851440668106079 -0.08398816734552383 255 255 255
10.03970718383789 2.3838112354278564 -1.0455741882324219 255 255 255
7.728026866912842 -3.0424065589904785 -1.712276577949524 255 255 255
13.579755783081055 -2.3481736183166504 -1.557700753211975 255 255 255
11.188675880432129 -9.404329299926758 -0.8598398566246033 255 255 255
7.293659687042236 0.04189128056168556 -1.6541205644607544 255 255 255
8.427107810974121 -2.5031442642211914 -1.7100194692611694 255 255 255
7.307092666625977 3.797847270965576 0.12653659284114838 255 255 255
19.430923461914062 3.2961220741271973 0.510152280330658 255 255 255
13.253365516662598 -10.267129898071289 -0.42365583777427673 255 255 255
19.532859802246094 -8.084574699401855 -1.685591697692871 255 255 255
4.974832057952881 1.2077436447143555 -1.2203153371810913 255 255 255
7.794687747955322 -2.0046982765197754 -1.6512538194656372 255 255 255
10.770084381103516 4.502711772918701 -0.4084814488887787 255 255 255
10.24260139465332 -3.1028006076812744 -1.6696302890777588 255 255 255
8.184002876281738 -8.032454490661621 -1.2193316221237183 255 255 255
12.948753356933594 -2.0117247104644775 -0.5800708532333374 255 255 255
8.17252254486084 -2.468487501144409 -1.7417888641357422 255 255 255
9.515356063842773 2.997875690460205 0.3407957851886749 255 255 255
12.581391334533691 -2.226316213607788 -1.7194874286651611 255 255 255
73.45075988769531 -23.1224308013916 1.0723764896392822 255 255 255
7.153793811798096 3.880016803741455 -0.23355704545974731 255 255 255
14.226460456848145 -3.8233323097229004 -1.6068631410598755 255 255 255
14.034655570983887 -10.627143859863281 -0.6135262846946716 255 255 255
12.777180671691895 4.850663185119629 -0.7711606025695801 255 255 255
13.918008804321289 2.8329155445098877 0.5455448627471924 255 255 255
18.48564910888672 -9.528512001037598 -1.3670333623886108 255 255 255
9.39053726196289 -2.4562249183654785 -1.6010334491729736 255 255 255
4.896082401275635 1.222762107849121 -0.9753138422966003 255 255 255
17.652536392211914 -12.09068489074707 -0.5694288015365601 255 255 255
5.858191013336182 -4.069149017333984 -0.9014344215393066 255 255 255
9.1187162399292 -0.6476752161979675 -0.4193284511566162 255 255 255
7.1027421951293945 3.905306577682495 0.0465470552444458 255 255 255
4.63341760635376 -4.1583147048950195 -0.9391805529594421 255 255 255
7.378121852874756 0.0005849573062732816 -0.7955079078674316 255 255 255
6.856211185455322 0.2810533046722412 -1.4332163333892822 255 255 255
10.339101791381836 2.9532063007354736 -0.017663517966866493 255 255 255
18.235807418823242 0.7211006283760071 0.014205535873770714 255 255 255
3.281303644180298 2.0567901134490967 -0.3660064935684204 255 255 255
4.0557451248168945 1.4944815635681152 -0.8973464965820312 255 255 255
14.241106033325195 -4.417283535003662 -1.7524510622024536 255 255 255
9.294477462768555 -0.7648237943649292 -1.0437943935394287 255 255 255
6.3859429359436035 0.8662508130073547 -1.5882298946380615 255 255 255
24.373416900634766 -14.77782917022705 -1.2837421894073486 255 255 255
6.768570899963379 1.0595499277114868 -1.6371275186538696 255 255 255
8.26201343536377 0.8455888628959656 -0.13298331201076508 255 255 255
20.967710494995117 -2.054898500442505 0.9910849332809448 255 255 255
10.771004676818848 -8.735280990600586 0.5130825638771057 255 255 255
18.063980102539062 0.22006593644618988 0.8229761123657227 255 255 255
23.73036766052246 -8.84437084197998 -1.563934564590454 255 255 255
6.91051721572876 0.6091640591621399 -0.668344259262085 255 255 255
13.408465385437012 -6.911712646484375 -1.716343879699707 255 255 255
18.83225440979004 -9.339794158935547 -1.403386116027832 255 255 255
73.28949737548828 -25.00789451599121 2.8094496726989746 255 255 255
3.837756872177124 1.8349251747131348 -0.20549850165843964 255 255 255
16.146671295166016 4.377799034118652 -0.7832193970680237 255 255 255
21.720685958862305 -2.393901824951172 0.45245546102523804 255 255 255
15.623613357543945 -6.726683616638184 -1.7320045232772827 255 255 255
17.650224685668945 1.3490804433822632 -0.09803234040737152 255 255 255
7.001065731048584 -1.9978017807006836 -1.6924889087677002 255 255 255
7.854557991027832 -1.7381771802902222 -1.7651143074035645 255 255 255
4.763495922088623 1.2999379634857178 -1.0660483837127686 255 255 255
6.874256134033203 0.49976813793182373 -0.6688657999038696 255 255 255
16.421113967895508 5.9874114990234375 -0.24033647775650024 255 255 255
13.213350296020508 4.984653472900391 -0.8854963779449463 255 255 255
3.7182698249816895 1.6625486612319946 -0.8225281834602356 255 255 255
4.960681915283203 -3.6818175315856934 -0.3634604513645172 255 255 255
14.887288093566895 0.9114519953727722 0.6929947733879089 255 255 255
21.441991806030273 -1.3485687971115112 -0.3477759063243866 255 255 255
6.513219356536865 0.0060392990708351135 -1.645989179611206 255 255 255
15.563007354736328 1.749673843383789 0.037275757640600204 255 255 255
8.65990161895752 2.816776990890503 -0.852855384349823 255 255 255
6.397587299346924 0.3629297614097595 -1.6185024976730347 255 255 255
6.839298248291016 0.3232528567314148 -0.8057951331138611 255 255 255
11.099569320678711 -9.068909645080566 -0.1107550859451294 255 255 255
5.4096503257751465 -3.359056234359741 -1.4654209613800049 255 255 255
20.698057174682617 2.7323880195617676 -0.11110961437225342 255 255 255
16.525531768798828 -11.512532234191895 -1.2964485883712769 255 255 255
10.468364715576172 -9.805316925048828 0.3716367781162262 255 255 255
3.8292789459228516 1.7819981575012207 -0.745101273059845 255 255 255
4.630791187286377 -4.3451828956604 -1.1008081436157227 255 255 255
9.190146446228027 2.794393539428711 -0.4471507966518402 255 255 255
8.864882469177246 -3.6210994720458984 -1.6944361925125122 255 255 255
13.234552383422852 -2.7042150497436523 -0.6709675192832947 255 255 255
34.77418518066406 -5.922043323516846 0.9062248468399048 255 255 255
10.722223281860352 -2.362560272216797 -1.6175354719161987 255 255 255
12.928937911987305 -6.41445255279541 -1.7527265548706055 255 255 255
7.10637092590332 -3.2623367309570312 -1.7920457124710083 255 255 255
13.725820541381836 2.7446181774139404 0.13143813610076904 255 255 255
4.644798755645752 -4.175714492797852 -1.2630995512008667 255 255 255
10.096657752990723 -8.663554191589355 0.01402135007083416 255 255 255
7.047416687011719 4.5557942390441895 0.17882055044174194 255 255 255
7.388874053955078 -0.08968227356672287 -0.7601432204246521 255 255 255
9.928603172302246 2.6735470294952393 0.37724968791007996 255 255 255
3.8592355251312256 1.7622425556182861 -0.22082939743995667 255 255 255
13.542564392089844 -2.8510425090789795 -0.9274330139160156 255 255 255
66.46146392822266 -18.557144165039062 2.509742021560669 255 255 255
17.506576538085938 -9.157854080200195 -1.6464835405349731 255 255 255
9.493701934814453 2.519425392150879 0.5820006132125854 255 255 255
7.291558742523193 -3.415773868560791 -1.7350060939788818 255 255 255
10.77881908416748 -1.7128580808639526 -1.668797492980957 255 255 255
8.069294929504395 0.17172597348690033 -1.6762654781341553 255 255 255
14.489191055297852 2.904322624206543 -0.9213778376579285 255 255 255
21.2060546875 -2.356153726577759 0.7848578095436096 255 255 255
21.840051651000977 -1.7364593744277954 0.9303837418556213 255 255 255
17.366531372070312 -11.883184432983398 -0.9684052467346191 255 255 255
6.799619674682617 0.5703379511833191 -0.6928576827049255 255 255 255
15.297285079956055 1.5413252115249634 0.07247708737850189 255 255 255
12.153796195983887 -3.3514630794525146 -1.6668235063552856 255 255 255
14.047165870666504 -1.6625072956085205 -1.4627658128738403 255 255 255
6.262022972106934 -0.06671298295259476 -1.600727915763855 255 255 255
22.918148040771484 -5.939840793609619 -1.4763007164001465 255 255 255
21.52412223815918 -2.1409542560577393 0.14362363517284393 255 255 255
7.948741436004639 -8.010095596313477 -0.42840301990509033 255 255 255
12.697361946105957 6.041916847229004 -0.8048399090766907 255 255 255
9.233630180358887 -8.608882904052734 -0.3670377731323242 255 255 255
12.929896354675293 5.57875919342041 -0.8226158618927002 255 255 255
3.847127914428711 1.615733027458191 -0.9754655957221985 255 255 255
6.792006015777588 1.3494653701782227 -1.086951494216919 255 255 255
11.196176528930664 -9.327166557312012 0.5191306471824646 255 255 255
6.849119663238525 1.2969868183135986 -0.6535438895225525 255 255 255
9.777652740478516 -1.6321296691894531 -1.6394741535186768 255 255 255
27.17392349243164 -16.003829956054688 -1.0417367219924927 255 255 255
6.802834987640381 -1.1104443073272705 -1.6544559001922607 255 255 255
4.946058750152588 -3.7858386039733887 -1.3891571760177612 255 255 255
6.962271690368652 3.8932156562805176 -0.19423671066761017 255 255 255
6.696305274963379 1.0473127365112305 -0.8886451721191406 255 255 255
16.01902961730957 4.897072792053223 -0.2631164789199829 255 255 255
10.195816040039062 2.3317718505859375 -0.7969253063201904 255 255 255
11.020222663879395 4.152181625366211 -1.05111563205719 255 255 255
6.314123153686523 -2.7289679050445557 -1.6375744342803955 255 255 255
5.029443264007568 -3.421565532684326 -1.0989207029342651 255 255 255
14.76298713684082 -8.19610595703125 -1.731249451637268 255 255 255
17.49855613708496 1.2605856657028198 0.5472206473350525 255 255 255
12.968801498413086 -8.878316879272461 0.4958215057849884 255 255 255
34.58525085449219 -13.78357982635498 -1.398237943649292 255 255 255
5.149343490600586 1.1992669105529785 -0.8285437822341919 255 255 255
16.451831817626953 -7.810091018676758 -1.667198657989502 255 255 255
44.31521224975586 -17.268646240234375 -1.3746682405471802 255 255 255
9.578229904174805 2.5835506916046143 -0.9677951335906982 255 255 255
13.724260330200195 -1.25319504737854 -1.4237123727798462 255 255 255
8.71890640258789 -8.358487129211426 -0.41150155663490295 255 255 255
6.747610092163086 -1.0157060623168945 -1.6703314781188965 255 255 255
12.945868492126465 -2.426661491394043 -0.40497449040412903 255 255 255
10.468611717224121 2.7664794921875 0.11090552061796188 255 255 255
13.067777633666992 -3.115145683288574 -1.5607473850250244 255 255 255
5.215505599975586 1.2655751705169678 -0.7989765405654907 255 255 255
31.270263671875 -9.362419128417969 -0.48798492550849915 255 255 255
5.690742492675781 -4.410704612731934 -0.772843599319458 255 255 255
10.91515827178955 5.388273239135742 0.6168221235275269 255 255 255
6.7239179611206055 -0.4643467366695404 -1.665256381034851 255 255 255
5.493605136871338 -4.827025890350342 -0.8041754961013794 255 255 255
4.6644134521484375 1.370468258857727 -0.8371009826660156 255 255 255
20.578338623046875 -5.094541072845459 -1.496594786643982 255 255 255
19.066177368164062 3.629591226577759 -0.5678057670593262 255 255 255
8.147143363952637 -0.8113123774528503 -1.5429853200912476 255 255 255
6.914548397064209 4.389233589172363 0.3792392909526825 255 255 255
3.659297227859497 1.9435511827468872 -0.3247677981853485 255 255 255
21.439760208129883 -2.8831260204315186 0.9492315053939819 255 255 255
15.480148315429688 -3.5000498294830322 -1.541566252708435 255 255 255
50.754913330078125 -19.42000961303711 -1.2819488048553467 255 255 255
5.026904582977295 1.2068017721176147 -0.9850916862487793 255 255 255
58.28377914428711 -30.171417236328125 1.683762550354004 255 255 255
6.931319236755371 1.4183595180511475 -1.520123839378357 255 255 255
18.36220932006836 -5.854416847229004 -1.6199061870574951 255 255 255
19.33859634399414 -12.813175201416016 0.34024515748023987 255 255 255
13.451778411865234 -1.6719926595687866 -1.5485923290252686 255 255 255
10.742759704589844 -1.5611915588378906 -1.5666449069976807 255 255 255
6.571768283843994 -0.8195406794548035 -1.704358696937561 255 255 255
16.403278350830078 -6.729463577270508 -1.6248328685760498 255 255 255
8.157683372497559 -2.3422698974609375 -1.6252644062042236 255 255 255
6.5921783447265625 0.8290178775787354 -0.8228253722190857 255 255 255
9.867530822753906 2.9015204906463623 0.29143571853637695 255 255 255
7.548667907714844 0.10254619270563126 -1.522688388824463 255 255 255
13.100595474243164 6.853790283203125 -0.7452143430709839 255 255 255
12.973630905151367 3.953535318374634 -0.24931108951568604 255 255 255
28.655405044555664 -12.181817054748535 -1.6009708642959595 255 255 255
4.285519599914551 1.4391710758209229 -0.9203715324401855 255 255 255
12.915230751037598 -1.6698318719863892 -1.1412723064422607 255 255 255
10.400260925292969 -9.087565422058105 0.5657308101654053 255 255 255
7.9325971603393555 4.963292121887207 -0.2530168294906616 255 255 255
10.537651062011719 3.6308021545410156 0.5122946500778198 255 255 255
4.5923686027526855 1.4929008483886719 -0.5977094173431396 255 255 255
7.533530235290527 -2.074465036392212 -1.636962652206421 255 255 255
6.676085472106934 -0.09265588968992233 -1.5820667743682861 255 255 255
24.005306243896484 -10.0767240524292 -1.631078839302063 255 255 255
3.5231173038482666 2.009983539581299 -0.1890849471092224 255 255 255
7.661888599395752 -0.11043303459882736 -1.23318612575531 255 255 255
54.03853225708008 -13.10926628112793 2.0599889755249023 255 255 255
32.33933639526367 -14.843321800231934 -1.5128540992736816 255 255 255
21.370336532592773 -2.442131280899048 1.006739616394043 255 255 255
8.851634979248047 -0.39461469650268555 -1.5273692607879639 255 255 255
7.19420862197876 1.7190029621124268 -0.848090410232544 255 255 255
4.6614203453063965 -4.178190231323242 -1.0739376544952393 255 255 255
9.656391143798828 -8.597591400146484 -0.8681850433349609 255 255 255
13.01347541809082 -8.94843864440918 0.5534008741378784 255 255 255
7.969267845153809 -7.950963020324707 -0.6258113384246826 255 255 255
20.847368240356445 2.711090326309204 0.9756636023521423 255 255 255
66.48228454589844 -18.495195388793945 2.103742837905884 255 255 255
4.297252178192139 1.4401066303253174 -0.903910219669342 255 255 255
18.567955017089844 -9.279601097106934 -0.8943071961402893 255 255 255
7.297150611877441 0.03502892702817917 -0.5793918371200562 255 255 255
23.691022872924805 -9.180220603942871 -1.5905154943466187 255 255 255
15.062429428100586 -11.039746284484863 -0.593612790107727 255 255 255
36.53414535522461 -17.441083908081055 -1.5505541563034058 255 255 255
36.64833450317383 -9.402283668518066 0.14856202900409698 255 255 255
9.64041519165039 2.512532949447632 -0.9771887063980103 255 255 255
3.9725308418273926 2.01765513420105 -0.19220903515815735 255 255 255
18.426204681396484 -6.2873735427856445 -1.583249568939209 255 255 255
26.27347183227539 -6.965640068054199 -1.3978711366653442 255 255 255
20.025697708129883 -13.103501319885254 -1.0203238725662231 255 255 255
7.8957200050354 -7.899478912353516 -0.9215205311775208 255 255 255
13.548602104187012 -10.608560562133789 -0.1652582436800003 255 255 255
9.502861022949219 -1.7040046453475952 -1.5717593431472778 255 255 255
13.021039009094238 -5.8538384437561035 -1.6760427951812744 255 255 255
8.155450820922852 -1.6811881065368652 -1.6984909772872925 255 255 255
9.448305130004883 2.5468788146972656 -1.0634578466415405 255 255 255
10.521029472351074 2.6167104244232178 0.4080156683921814 255 255 255
10.646424293518066 -4.486262798309326 -1.7019203901290894 255 255 255
4.0230913162231445 1.5250824689865112 -0.9693776369094849 255 255 255
8.552709579467773 3.0822105407714844 -0.32936280965805054 255 255 255
8.803727149963379 2.831507444381714 -0.846560537815094 255 255 255
6.986469745635986 4.036016941070557 0.36457398533821106 255 255 255
14.9414701461792 -10.932772636413574 -0.23316794633865356 255 255 255
9.642411231994629 2.5210320949554443 -1.123998999595642 255 255 255
11.557195663452148 -1.4965317249298096 -1.5866156816482544 255 255 255
18.525672912597656 3.803056478500366 0.8966163396835327 255 255 255
53.13814163208008 -12.898573875427246 1.728616714477539 255 255 255
6.356997966766357 1.021877646446228 -1.5624643564224243 255 255 255
14.875078201293945 -4.744051933288574 -1.649863600730896 255 255 255
9.7253999710083 -8.766751289367676 -0.35181546211242676 255 255 255
13.900630950927734 7.217198848724365 -0.6406432390213013 255 255 255
9.361246109008789 -2.6993408203125 -1.6985520124435425 255 255 255
13.17741870880127 6.4367828369140625 -0.6175248622894287 255 255 255
6.603822708129883 0.6380809545516968 -1.495569109916687 255 255 255
3.519244909286499 1.8292149305343628 -0.788512110710144 255 255 255
10.532425880432129 -4.849707126617432 -1.6815838813781738 255 255 255
21.89239501953125 -0.5897382497787476 0.5426895618438721 255 255 255
7.512185096740723 -3.811115264892578 -1.751042127609253 255 255 255
12.890241622924805 -1.744507908821106 -0.7125721573829651 255 255 255
6.5204291343688965 0.9026252031326294 -1.2170383930206299 255 255 255
18.155323028564453 -10.25154972076416 -1.4546271562576294 255 255 255
23.14236068725586 -13.374911308288574 0.5865923762321472 255 255 255
6.037497043609619 0.2923911213874817 -1.5801608562469482 255 255 255
11.637360572814941 -1.8909683227539062 -1.6194369792938232 255 255 255
5.039431095123291 1.249595284461975 -1.1272213459014893 255 255 255
10.68288516998291 4.434746265411377 0.5030589699745178 255 255 255
30.971242904663086 -11.129201889038086 -1.4527193307876587 255 255 255
13.165664672851562 -10.321076393127441 -0.5563639402389526 255 255 255
9.576324462890625 2.860715389251709 0.45490631461143494 255 255 255
18.862201690673828 -12.103915214538574 0.6742916703224182 255 255 255
12.241408348083496 -6.447356224060059 -1.7826801538467407 255 255 255
6.961503505706787 0.8047839403152466 -0.774681568145752 255 255 255
13.547733306884766 3.1572327613830566 -0.20364847779273987 255 255 255
6.572059154510498 0.9856375455856323 -1.382643222808838 255 255 255
7.136775970458984 0.13558246195316315 -1.0030850172042847 255 255 255
20.753034591674805 2.7719316482543945 -0.6259340047836304 255 255 255
14.807741165161133 -2.6241111755371094 -1.5566444396972656 255 255 255
12.820331573486328 -6.662678241729736 -1.6963005065917969 255 255 255
6.6336989402771 0.6779789924621582 -1.378527045249939 255 255 255
7.858427047729492 5.409390926361084 0.4473270773887634 255 255 255
52.06977081298828 -20.867460250854492 0.0553213395178318 255 255 255
3.9878504276275635 1.6211687326431274 -0.70206218957901 255 255 255
3.638232946395874 1.9144206047058105 -0.39483368396759033 255 255 255
19.254222869873047 -0.05418435484170914 0.01775275357067585 255 255 255
6.962901592254639 -2.0453755855560303 -1.6946133375167847 255 255 255
7.299247741699219 0.06538951396942139 -1.2120929956436157 255 255 255
6.449470520019531 -0.3302604556083679 -1.5497535467147827 255 255 255
6.578934669494629 0.9344887137413025 -1.3287395238876343 255 255 255
12.137247085571289 -3.0466208457946777 -1.632261037826538 255 255 255
15.358444213867188 -3.644362688064575 -1.0499110221862793 255 255 255
8.976177215576172 -0.6104553937911987 -1.6901190280914307 255 255 255
7.814706325531006 -7.8531084060668945 -0.9258628487586975 255 255 255
7.584512710571289 -1.7380852699279785 -1.6120930910110474 255 255 255
6.319028854370117 -2.900850534439087 -1.8079912662506104 255 255 255
9.353666305541992 2.541637897491455 -0.810113251209259 255 255 255
38.15825271606445 -13.10297966003418 -0.8963813781738281 255 255 255
12.441722869873047 -9.607514381408691 0.06579992175102234 255 255 255
13.283782958984375 6.5263471603393555 -0.688162624835968 255 255 255
4.479727745056152 -4.401401996612549 -1.193618655204773 255 255 255
10.597704887390137 -8.743355751037598 0.11598856747150421 255 255 255
6.461517333984375 0.9083868265151978 -0.8373215198516846 255 255 255
12.323646545410156 -9.537137985229492 0.19640330970287323 255 255 255
6.326394557952881 4.223405361175537 0.0877268984913826 255 255 255
31.85164451599121 -7.416436672210693 -1.130409598350525 255 255 255
20.462547302246094 -2.2133917808532715 -0.2312004715204239 255 255 255
7.219117164611816 -3.2945263385772705 -1.770321011543274 255 255 255
10.784919738769531 2.058793067932129 -0.2913282513618469 255 255 255
28.02105140686035 -8.932480812072754 -1.4427103996276855 255 255 255
6.41467809677124 -3.3156161308288574 -1.8356326818466187 255 255 255
3.88084077835083 1.798193335533142 -0.17705664038658142 255 255 255
11.628305435180664 -3.614607810974121 -1.6100603342056274 255 255 255
10.441662788391113 4.508686542510986 0.3018563985824585 255 255 255
10.647019386291504 2.2221274375915527 -0.8493863344192505 255 255 255
4.766432762145996 2.0865423679351807 -0.8224417567253113 255 255 255
14.129106521606445 -3.1073269844055176 -0.6752378344535828 255 255 255
8.594598770141602 -8.450751304626465 0.09591056406497955 255 255 255
4.997104167938232 -3.522702693939209 -0.8448772430419922 255 255 255
14.499614715576172 -1.6925840377807617 -0.45012786984443665 255 255 255
14.207686424255371 -1.8540089130401611 -1.4833354949951172 255 255 255
15.295271873474121 7.087845325469971 -0.25327107310295105 255 255 255
14.036986351013184 6.454630374908447 -0.5040358901023865 255 255 255
13.086996078491211 -2.4164600372314453 -0.43934375047683716 255 255 255
6.961288928985596 -1.8004335165023804 -1.6575870513916016 255 255 255
6.760267734527588 0.3393971621990204 -1.0633958578109741 255 255 255
15.697909355163574 -11.29119873046875 -0.5800135135650635 255 255 255
7.3947834968566895 -0.46098294854164124 -1.5697118043899536 255 255 255
11.922975540161133 -1.0489170551300049 -1.4523909091949463 255 255 255
13.935279846191406 3.0681376457214355 -0.7282997965812683 255 255 255
12.416926383972168 -8.601758003234863 0.7331106066703796 255 255 255
8.90543270111084 -3.1437716484069824 -1.737764596939087 255 255 255
7.068419456481934 1.3746052980422974 -0.6729698181152344 255 255 255
9.583474159240723 2.8616507053375244 0.4444444179534912 255 255 255
38.43001174926758 -10.485819816589355 -0.9485947489738464 255 255 255
21.953840255737305 -0.814860999584198 0.18020319938659668 255 255 255
17.3681640625 7.895759582519531 -0.24611175060272217 255 255 255
13.432894706726074 -6.21929407119751 -1.756653070449829 255 255 255
13.546369552612305 -2.76240873336792 -0.6250947117805481 255 255 255
31.19598388671875 -12.356545448303223 -1.5197683572769165 255 255 255
7.834165096282959 -7.8357415199279785 -1.4906761646270752 255 255 255
10.259533882141113 2.6074094772338867 0.41489267349243164 255 255 255
10.835738182067871 2.6014492511749268 -0.11551685631275177 255 255 255
12.969890594482422 -1.2662032842636108 -1.487730860710144 255 255 255
14.553202629089355 -2.2767109870910645 -0.564498782157898 255 255 255
7.3098978996276855 3.653250217437744 -0.20900599658489227 255 255 255
13.08421516418457 -2.515334367752075 -0.5827317237854004 255 255 255
18.232887268066406 -9.905997276306152 -1.3496896028518677 255 255 255
6.697164535522461 1.409550666809082 -1.0751112699508667 255 255 255
18.897016525268555 3.6114299297332764 -0.2686598002910614 255 255 255
6.848100185394287 0.2186710238456726 -0.920219898223877 255 255 255
34.56686782836914 -5.149166584014893 0.6037365198135376 255 255 255
18.287866592407227 -4.9658684730529785 -1.4807102680206299 255 255 255
9.711982727050781 2.4979159832000732 -1.1563899517059326 255 255 255
7.334728717803955 -4.232095241546631 -1.5746591091156006 255 255 255
7.825187683105469 -7.8457231521606445 -1.7269716262817383 255 255 255
22.58970832824707 -2.188784122467041 -0.7154788970947266 255 255 255
8.80275821685791 3.021141290664673 -0.8757745623588562 255 255 255
18.36400604248047 -7.702448844909668 -1.668626070022583 255 255 255
18.296844482421875 -4.836393356323242 -1.5736302137374878 255 255 255
6.947348117828369 4.028844833374023 -0.1925518959760666 255 255 255
10.066873550415039 -8.568907737731934 0.14824563264846802 255 255 255
6.212401390075684 -2.8640031814575195 -1.6964987516403198 255 255 255
6.30691385269165 4.130896091461182 0.009896039962768555 255 255 255
6.665459156036377 0.01472079660743475 -1.6282140016555786 255 255 255
32.738731384277344 -9.254668235778809 -0.07678913325071335 255 255 255
7.45026969909668 3.6332919597625732 0.39568963646888733 255 255 255
9.753793716430664 -2.1775195598602295 -1.760625958442688 255 255 255
16.56638526916504 6.213376522064209 0.09391089528799057 255 255 255
6.802096843719482 0.4778188169002533 -0.8186591863632202 255 255 255
7.671464443206787 -2.4739346504211426 -1.6996163129806519 255 255 255
16.483327865600586 5.792461395263672 0.3471548855304718 255 255 255
10.877388000488281 4.461367130279541 -0.6401576995849609 255 255 255
7.81456184387207 -1.7901930809020996 -1.7086501121520996 255 255 255
13.69425106048584 -2.4841225147247314 -0.1545870006084442 255 255 255
3.6061575412750244 1.7733734846115112 -0.3979797959327698 255 255 255
12.076252937316895 -1.5491015911102295 -1.5183106660842896 255 255 255
9.497004508972168 -4.730826377868652 -1.7475327253341675 255 255 255
7.358217716217041 1.0742782354354858 -0.5301477313041687 255 255 255
22.99655532836914 -10.749420166015625 -1.6518068313598633 255 255 255
8.056047439575195 -3.0648133754730225 -1.6816400289535522 255 255 255
21.546344757080078 -2.723620891571045 0.4651406705379486 255 255 255
7.5029988288879395 -2.6757590770721436 -1.7552162408828735 255 255 255
10.410497665405273 -8.869133949279785 0.7374657392501831 255 255 255
37.77641296386719 -21.821500778198242 1.3505311012268066 255 255 255
3.3120312690734863 2.0082225799560547 -0.6883382797241211 255 255 255
10.608041763305664 -9.218326568603516 0.6698530912399292 255 255 255
8.243523597717285 -0.09703202545642853 -0.6019823551177979 255 255 255
72.72184753417969 -24.951326370239258 1.9279441833496094 255 255 255
6.23008394241333 -1.188339114189148 -1.632132649421692 255 255 255
8.269824028015137 2.9672904014587402 -0.9151466488838196 255 255 255
7.354883670806885 -4.207849025726318 -1.7334200143814087 255 255 255
4.792449951171875 -3.902179002761841 -1.3533796072006226 255 255 255
7.108397960662842 -3.0610294342041016 -1.633879542350769 255 255 255
16.633344650268555 2.687354564666748 -0.832340657711029 255 255 255
6.80045223236084 -1.4575023651123047 -1.6783353090286255 255 255 255
21.066574096679688 -2.1199824810028076 0.4201293885707855 255 255 255
14.88261890411377 0.7656721472740173 0.6851418614387512 255 255 255
3.5117645263671875 1.7474614381790161 -0.7077655792236328 255 255 255
17.64009666442871 4.12187385559082 0.636883020401001 255 255 255
12.963712692260742 -1.7070467472076416 -0.6184986233711243 255 255 255
15.419278144836426 -11.051734924316406 -1.0130188465118408 255 255 255
7.072337627410889 -3.1168384552001953 -1.7819863557815552 255 255 255
6.264721870422363 -0.13703693449497223 -1.702085018157959 255 255 255
20.649370193481445 -7.967549800872803 -1.4895628690719604 255 255 255
6.600988388061523 0.4863020181655884 -1.2191060781478882 255 255 255
3.5209105014801025 1.7873141765594482 -0.8293997049331665 255 255 255
73.06959533691406 -26.037635803222656 2.380357027053833 255 255 255
19.402162551879883 -12.574390411376953 -1.404693841934204 255 255 255
7.345757007598877 0.2127748727798462 -1.2002488374710083 255 255 255
8.91059684753418 -3.0139670372009277 -1.6610939502716064 255 255 255
9.56991958618164 2.4821956157684326 -0.9029703736305237 255 255 255
3.572378158569336 1.751747488975525 -0.9168827533721924 255 255 255
18.733983993530273 -9.803296089172363 -1.671966314315796 255 255 255
8.300878524780273 -8.068115234375 -1.1088076829910278 255 255 255
9.383959770202637 2.5841047763824463 -0.7063222527503967 255 255 255
18.171846389770508 -10.081720352172852 -0.7983779907226562 255 255 255
12.781200408935547 3.0998339653015137 -0.9180944561958313 255 255 255
18.112598419189453 0.05349793657660484 0.4188709855079651 255 255 255
4.51014518737793 1.5104526281356812 -0.6849189400672913 255 255 255
14.279377937316895 -8.365801811218262 -1.7442654371261597 255 255 255
4.132890701293945 1.620391845703125 -0.7300475239753723 255 255 255
12.909589767456055 6.654430389404297 -0.7885345816612244 255 255 255
6.986987113952637 0.8922694325447083 -0.7291568517684937 255 255 255
13.107589721679688 -4.935304641723633 -1.650466799736023 255 255 255
38.26640319824219 -21.162479400634766 0.6979662775993347 255 255 255
9.410661697387695 0.24491792917251587 -0.34515315294265747 255 255 255
7.312572956085205 0.14827923476696014 -1.1945242881774902 255 255 255
6.9415059089660645 0.2916749119758606 -1.6594431400299072 255 255 255
12.320717811584473 -5.350846290588379 -1.6386276483535767 255 255 255
9.495762825012207 2.685838222503662 0.5068040490150452 255 255 255
38.406822204589844 -21.113292694091797 0.7037103772163391 255 255 255
6.294778347015381 -1.3608835935592651 -1.6948405504226685 255 255 255
5.1274094581604 1.207055926322937 -0.9493454694747925 255 255 255
10.661703109741211 4.857602119445801 0.08435266464948654 255 255 255
21.417266845703125 -1.3234068155288696 -0.5788228511810303 255 255 255
13.09674072265625 -8.817185401916504 0.7827839255332947 255 255 255
7.797849655151367 -2.063535451889038 -1.6699459552764893 255 255 255
6.74522590637207 0.9271021485328674 -0.7313580513000488 255 255 255
11.89003849029541 -8.993523597717285 0.606336772441864 255 255 255
4.120306015014648 1.8139121532440186 -0.3301849365234375 255 255 255
7.118531703948975 1.603635311126709 -0.6990662813186646 255 255 255
4.542389869689941 -4.366688251495361 -1.263995885848999 255 255 255
24.18783187866211 -10.37979793548584 -1.612438440322876 255 255 255
39.188724517822266 -21.306087493896484 0.34306466579437256 255 255 255
11.345865249633789 3.3288707733154297 0.17893293499946594 255 255 255
28.496002197265625 -16.68610382080078 -0.4877862334251404 255 255 255
9.953968048095703 2.671905755996704 0.24991485476493835 255 255 255
19.017520904541016 3.515695333480835 0.36560842394828796 255 255 255
18.504249572753906 -12.809728622436523 0.1423478126525879 255 255 255
7.738345623016357 0.012940485961735249 -0.3649543523788452 255 255 255
10.8587646484375 4.54088830947876 -0.5860771536827087 255 255 255
71.7282943725586 -20.956092834472656 2.7367706298828125 255 255 255
6.659472465515137 -2.090636730194092 -1.6483508348464966 255 255 255
7.0354743003845215 1.432698130607605 -1.542036533355713 255 255 255
8.834314346313477 -0.4653446674346924 -1.3243227005004883 255 255 255
9.523356437683105 2.4764490127563477 -1.2424414157867432 255 255 255
13.319313049316406 6.123237133026123 -0.6434090733528137 255 255 255
5.102878093719482 -3.5604124069213867 -0.5172515511512756 255 255 255
12.956072807312012 6.074066638946533 -0.8211427927017212 255 255 255
12.901885032653809 -9.015933990478516 0.6044328808784485 255 255 255
19.48573112487793 -12.35761547088623 0.514541745185852 255 255 255
6.7658867835998535 1.1390470266342163 -0.8344036340713501 255 255 255
4.556842803955078 -4.256224155426025 -1.3550001382827759 255 255 255
10.19248104095459 -2.2862889766693115 -1.6201698780059814 255 255 255
18.575864791870117 -9.419818878173828 -0.6795308589935303 255 255 255
9.487836837768555 3.7620997428894043 0.5332695841789246 255 255 255
9.614106178283691 3.3070085048675537 0.41577672958374023 255 255 255
13.378564834594727 -2.5111169815063477 -0.20432442426681519 255 255 255
6.561257839202881 0.5230799317359924 -1.2950074672698975 255 255 255
6.760788440704346 -2.856564998626709 -1.7077778577804565 255 255 255
7.49491024017334 1.307962417602539 -0.5524951219558716 255 255 255
19.206876754760742 3.421133518218994 -0.50572270154953 255 255 255
73.6205825805664 -22.974163055419922 1.4031484127044678 255 255 255
14.440099716186523 5.163517475128174 -0.34118643403053284 255 255 255
34.40195846557617 -13.165034294128418 -1.4303582906723022 255 255 255
10.734174728393555 3.3398959636688232 0.2992165684700012 255 255 255
5.573507785797119 -3.836336374282837 -0.35051652789115906 255 255 255
21.943599700927734 -12.888484954833984 0.46857136487960815 255 255 255
20.645734786987305 2.8874948024749756 -0.765599250793457 255 255 255
6.72916316986084 0.5147577524185181 -0.7035233974456787 255 255 255
13.027770042419434 -1.8596910238265991 -1.6533581018447876 255 255 255
6.461509704589844 -3.092646837234497 -1.6163935661315918 255 255 255
13.52889633178711 -2.6936733722686768 -1.41153883934021 255 255 255
13.581180572509766 -9.890170097351074 0.26943573355674744 255 255 255
6.338418960571289 0.7679448127746582 -1.401211142539978 255 255 255
17.738977432250977 0.48011693358421326 0.2486114799976349 255 255 255
11.162622451782227 3.877317190170288 -1.0581070184707642 255 255 255
15.19589900970459 -3.601803779602051 -0.6021878123283386 255 255 255
17.2612247467041 -12.000513076782227 -0.6380017995834351 255 255 255
8.091595649719238 0.14370465278625488 -0.050923172384500504 255 255 255
6.545107364654541 -3.5720937252044678 -1.761700987815857 255 255 255
3.5027878284454346 1.861070156097412 -0.30788713693618774 255 255 255
7.355030536651611 1.2961854934692383 -1.5499663352966309 255 255 255
3.7905826568603516 1.7245644330978394 -0.8094156980514526 255 255 255
6.738173961639404 4.0205864906311035 0.11457603424787521 255 255 255
7.525127410888672 -0.2670569121837616 -1.650718331336975 255 255 255
14.433496475219727 7.127776145935059 -0.4564783573150635 255 255 255
31.143465042114258 -9.575592041015625 -0.6521954536437988 255 255 255
12.148487091064453 -4.019720077514648 -1.6501113176345825 255 255 255
9.642711639404297 2.470930814743042 -1.2360434532165527 255 255 255
25.724994659423828 -7.772500991821289 -1.4454443454742432 255 255 255
10.208613395690918 -4.197623252868652 -1.7537039518356323 255 255 255
6.906668663024902 4.34739875793457 -0.2349538654088974 255 255 255
8.028465270996094 -4.2939066886901855 -1.7583754062652588 255 255 255
13.421273231506348 -2.783907413482666 -0.7414022088050842 255 255 255
7.260622501373291 0.17370623350143433 -1.0941277742385864 255 255 255
3.7200005054473877 2.223757743835449 -0.17266124486923218 255 255 255
3.6156234741210938 1.877022624015808 -0.7367781400680542 255 255 255
8.244417190551758 -7.947932243347168 -1.0244266986846924 255 255 255
21.672958374023438 -0.4779074490070343 0.9733806252479553 255 255 255
7.57719612121582 -0.9117621183395386 -1.6249501705169678 255 255 255
14.797771453857422 -2.561297655105591 -1.5022538900375366 255 255 255
8.556679725646973 -4.724939346313477 -1.7257633209228516 255 255 255
3.6147217750549316 1.9726600646972656 -0.3194721043109894 255 255 255
9.61415958404541 2.7467072010040283 -0.8528084754943848 255 255 255
6.575704574584961 -0.30403587222099304 -1.688874363899231 255 255 255
13.407281875610352 -1.27693510055542 -1.4948413372039795 255 255 255
10.519621849060059 2.491640090942383 0.3511323928833008 255 255 255
18.47299575805664 3.735431671142578 -0.3587771952152252 255 255 255
18.50521469116211 -9.580820083618164 -1.1533584594726562 255 255 255
21.340486526489258 -2.5789060592651367 0.7901725172996521 255 255 255
11.863170623779297 -6.010639667510986 -1.7001978158950806 255 255 255
4.856515884399414 1.3096600770950317 -1.2755136489868164 255 255 255
7.134127616882324 4.730616092681885 -0.20726358890533447 255 255 255
9.704562187194824 -8.757166862487793 -0.631734311580658 255 255 255
18.604286193847656 -8.942215919494629 -1.7813506126403809 255 255 255
8.7290678024292 -4.203804969787598 -1.6190040111541748 255 255 255
18.998382568359375 -0.3141113519668579 0.4500332772731781 255 255 255
12.852463722229004 -2.3116397857666016 -1.2960090637207031 255 255 255
21.94359016418457 -3.6682684421539307 1.0161662101745605 255 255 255
7.5739288330078125 -1.2391440868377686 -1.683956503868103 255 255 255
30.698955535888672 -10.043391227722168 -1.477626919746399 255 255 255
17.59149742126465 1.2722208499908447 -0.2015138864517212 255 255 255
58.56387710571289 -29.825763702392578 -0.735980749130249 255 255 255
9.821695327758789 2.805821418762207 0.2776629626750946 255 255 255
7.001586437225342 3.8335087299346924 0.2720547318458557 255 255 255
14.150453567504883 -2.5519213676452637 -1.5499639511108398 255 255 255
3.515770435333252 1.8880348205566406 -0.25418758392333984 255 255 255
23.41905975341797 -14.316752433776855 -1.1018439531326294 255 255 255
3.3339221477508545 2.107835292816162 -0.24722601473331451 255 255 255
8.674031257629395 2.860532760620117 -0.9847683906555176 255 255 255
22.937179565429688 -10.709691047668457 -1.7509405612945557 255 255 255
11.469456672668457 4.298325538635254 -0.9954376220703125 255 255 255
4.818779945373535 1.3892529010772705 -0.7102247476577759 255 255 255
9.56132984161377 -8.34476375579834 -0.1306798756122589 255 255 255
6.805869102478027 -3.90299654006958 -1.920474648475647 255 255 255
6.711999416351318 1.08335280418396 -1.1869182586669922 255 255 255
6.984116077423096 0.18789644539356232 -1.6490674018859863 255 255 255
30.009824752807617 -6.21788215637207 0.13940079510211945 255 255 255
26.91853904724121 -15.89599323272705 -0.7632229924201965 255 255 255
5.006674766540527 -4.11912727355957 -0.3432982265949249 255 255 255
11.450928688049316 -9.325984001159668 -0.8453421592712402 255 255 255
17.420879364013672 -9.232041358947754 -1.7015740871429443 255 255 255
9.995497703552246 -9.617250442504883 0.31465956568717957 255 255 255
9.907927513122559 2.541416645050049 -0.8131445646286011 255 255 255
10.675430297851562 -8.968820571899414 -0.020569492131471634 255 255 255
17.81656837463379 1.6112329959869385 0.026902666315436363 255 255 255
7.248526573181152 3.819578170776367 0.001712932949885726 255 255 255
25.841142654418945 -7.859823703765869 -1.5183072090148926 255 255 255
8.96068286895752 0.5495989918708801 -0.4471015930175781 255 255 255
9.846546173095703 2.6737537384033203 0.4236624836921692 255 255 255
8.65421199798584 -3.828601121902466 -1.7426891326904297 255 255 255
10.820413589477539 4.925268173217773 -0.006376464385539293 255 255 255
14.904960632324219 -11.01937198638916 -0.2826730012893677 255 255 255
12.16329288482666 -6.961853504180908 -1.7602578401565552 255 255 255
6.697184085845947 -3.1218106746673584 -1.7359991073608398 255 255 255
14.67386531829834 -5.042581558227539 -1.6516016721725464 255 255 255
3.9571046829223633 1.596598744392395 -0.9693030714988708 255 255 255
6.688584804534912 0.3192034661769867 -1.6440823078155518 255 255 255
3.9761993885040283 1.5237663984298706 -0.9905903339385986 255 255 255
7.768832683563232 -7.727243900299072 -1.6483830213546753 255 255 255
42.406593322753906 -7.907020092010498 0.6294882893562317 255 255 255
8.412410736083984 0.4938066899776459 -0.053200945258140564 255 255 255
9.148810386657715 -8.210376739501953 -0.1739901304244995 255 255 255
10.27437973022461 -8.99562931060791 -0.41353243589401245 255 255 255
7.167485237121582 1.666006326675415 -0.8521179556846619 255 255 255
8.194032669067383 -1.0030242204666138 -1.599647879600525 255 255 255
4.21696662902832 1.524277687072754 -0.8202233910560608 255 255 255
4.450428485870361 1.3681749105453491 -0.9786272048950195 255 255 255
7.011641979217529 0.47645339369773865 -1.5860284566879272 255 255 255
34.41592025756836 -13.401304244995117 -1.346927285194397 255 255 255
3.7556118965148926 2.3418233394622803 -0.06581415235996246 255 255 255
14.049779891967773 -2.2399654388427734 -1.6405442953109741 255 255 255
11.60690975189209 -3.770880937576294 -1.7345397472381592 255 255 255
7.658970832824707 -1.6247467994689941 -1.6689194440841675 255 255 255
6.499028205871582 0.9575701951980591 -1.5304648876190186 255 255 255
15.39854621887207 1.4314616918563843 0.4746977984905243 255 255 255
18.738126754760742 -9.796420097351074 -0.6844882965087891 255 255 255
7.45546293258667 1.5308223962783813 -0.4845234453678131 255 255 255
17.427289962768555 8.218060493469238 0.13030287623405457 255 255 255
13.541390419006348 -1.2411792278289795 -0.7337043285369873 255 255 255
17.10186004638672 -9.787768363952637 -1.7072833776474 255 255 255
55.01743698120117 -29.05137062072754 -0.254154235124588 255 255 255
18.140567779541016 1.1427756547927856 -0.26183855533599854 255 255 255
7.258204460144043 0.20063909888267517 -1.0716118812561035 255 255 255
12.887615203857422 -1.8752448558807373 -0.7727002501487732 255 255 255
7.291317939758301 0.12861186265945435 -1.3639634847640991 255 255 255
16.182010650634766 -11.339821815490723 -1.0121796131134033 255 255 255
3.4821083545684814 1.9283647537231445 -0.2298731952905655 255 255 255
10.436498641967773 -4.952455997467041 -1.7935817241668701 255 255 255
12.921100616455078 -1.9491814374923706 -0.639194130897522 255 255 255
4.865708351135254 -3.468369245529175 -1.179048776626587 255 255 255
6.875419616699219 0.21445511281490326 -1.6100672483444214 255 255 255
8.925802230834961 -0.5025300979614258 -0.40129074454307556 255 255 255
20.48927879333496 2.928720712661743 -0.7515450716018677 255 255 255
11.744336128234863 -3.857201099395752 -1.6041793823242188 255 255 255
17.988422393798828 0.3402576148509979 0.49455735087394714 255 255 255
16.25719451904297 -11.40666389465332 -1.30018949508667 255 255 255
13.090357780456543 4.935972690582275 -0.762855589389801 255 255 255
18.60310935974121 -9.058489799499512 -1.6861844062805176 255 255 255
4.70967435836792 -4.21111536026001 -1.035571813583374 255 255 255
13.608280181884766 -2.2441232204437256 -1.51621413230896 255 255 255
6.804800510406494 4.151182174682617 -0.2296362966299057 255 255 255
38.208290100097656 -10.484932899475098 -0.6112915277481079 255 255 255
28.040569305419922 -3.200425386428833 -0.19799543917179108 255 255 255
17.37026596069336 -7.5384721755981445 -1.619117021560669 255 255 255
32.075164794921875 -18.69083595275879 -0.15087217092514038 255 255 255
18.828582763671875 3.1676387786865234 -0.7795209288597107 255 255 255
10.629671096801758 2.7943356037139893 -0.1620054394006729 255 255 255
13.252911567687988 -1.258707046508789 -0.5367743968963623 255 255 255
9.480440139770508 -2.0040178298950195 -1.6399273872375488 255 255 255
14.192230224609375 -10.685399055480957 -0.6555560827255249 255 255 255
11.887537002563477 -9.56229305267334 -0.9626080989837646 255 255 255
7.439236640930176 -2.3245484828948975 -1.6881822347640991 255 255 255
8.372129440307617 -8.091055870056152 -1.2015961408615112 255 255 255
14.763947486877441 -3.2267088890075684 -0.4040635824203491 255 255 255
5.328804969787598 1.116422176361084 -0.841558575630188 255 255 255
13.292168617248535 6.059569358825684 -0.7595911622047424 255 255 255
11.699810981750488 -3.3760790824890137 -1.6613627672195435 255 255 255
8.920376777648926 -3.062145233154297 -1.640899896621704 255 255 255
21.13802719116211 -9.314325332641602 -1.6624597311019897 255 255 255
6.8454461097717285 1.1544727087020874 -0.6489902138710022 255 255 255
6.478669166564941 -1.7204036712646484 -1.7596721649169922 255 255 255
13.57605266571045 -1.8052691221237183 -0.14060349762439728 255 255 255
8.353377342224121 -2.9037280082702637 -1.5946019887924194 255 255 255
3.5550150871276855 1.8193730115890503 -0.6942927241325378 255 255 255
6.398571014404297 0.5532747507095337 -1.0940717458724976 255 255 255
7.790645599365234 -2.331238031387329 -1.6741855144500732 255 255 255
14.753847122192383 -5.470865249633789 -1.5902819633483887 255 255 255
13.482170104980469 3.09253191947937 -0.7319285869598389 255 255 255
16.436246871948242 5.943963527679443 0.0796537846326828 255 255 255
8.381763458251953 0.5894140601158142 -0.011753836646676064 255 255 255
6.668150901794434 1.0346647500991821 -1.3210270404815674 255 255 255
9.734872817993164 -2.8619637489318848 -1.6303282976150513 255 255 255
9.514521598815918 2.7703402042388916 0.26461711525917053 255 255 255
10.694317817687988 4.850489616394043 -0.023839831352233887 255 255 255
17.525226593017578 8.364273071289062 -0.3830702304840088 255 255 255
6.710534572601318 -0.18573430180549622 -1.62875235080719 255 255 255
9.825657844543457 -8.61528491973877 0.2647525370121002 255 255 255
53.15708541870117 -12.843172073364258 0.7374712824821472 255 255 255
14.8081693649292 5.62087345123291 -0.42806684970855713 255 255 255
4.814706802368164 -3.637495279312134 -1.1650292873382568 255 255 255
13.498873710632324 -10.422086715698242 -0.6158971786499023 255 255 255
10.998470306396484 -8.967609405517578 -0.043081022799015045 255 255 255
11.756738662719727 -1.88053560256958 -1.5888731479644775 255 255 255
9.74207592010498 2.4355640411376953 -1.0200731754302979 255 255 255
9.480467796325684 -8.215603828430176 -0.07411912083625793 255 255 255
18.469919204711914 -1.3476834297180176 -0.24869045615196228 255 255 255
12.471319198608398 -1.2564126253128052 -1.521260380744934 255 255 255
5.563162803649902 -4.511781215667725 -0.8284388780593872 255 255 255
7.238659858703613 -2.878011465072632 -1.7131644487380981 255 255 255
20.071916580200195 -12.2784423828125 0.8700049519538879 255 255 255
6.917904853820801 -4.106622695922852 -1.7717247009277344 255 255 255
9.434840202331543 0.2021367996931076 -0.7208573222160339 255 255 255
11.486023902893066 -5.056406497955322 -1.8118935823440552 255 255 255
28.444429397583008 -10.919954299926758 -1.5711129903793335 255 255 255
6.584295749664307 -3.6518635749816895 -1.724340796470642 255 255 255
17.50884437561035 0.7271887063980103 0.49246153235435486 255 255 255
21.414817810058594 -2.2414443492889404 0.43298253417015076 255 255 255
8.79527759552002 -0.5631335973739624 -0.6318870186805725 255 255 255
12.366128921508789 4.207737922668457 -0.890795111656189 255 255 255
14.341243743896484 -2.1460094451904297 -0.24577268958091736 255 255 255
43.16246032714844 -8.280570030212402 0.09872209280729294 255 255 255
7.830325126647949 0.1345215141773224 -1.704551100730896 255 255 255
4.901491165161133 -3.7290868759155273 -1.2566180229187012 255 255 255
3.755246639251709 1.9041547775268555 -0.2774850130081177 255 255 255
4.703254222869873 -4.107127666473389 -0.9921793937683105 255 255 255
5.0490193367004395 -3.292855739593506 -1.3324944972991943 255 255 255
7.32824182510376 0.6297205686569214 -0.49466460943222046 255 255 255
11.450361251831055 -8.922097206115723 0.5173014402389526 255 255 255
54.506717681884766 -13.451961517333984 1.8193010091781616 255 255 255
8.191529273986816 5.090195655822754 -0.18596729636192322 255 255 255
7.941248416900635 -1.1690553426742554 -1.6131457090377808 255 255 255
13.348721504211426 -1.225915789604187 -0.4915047883987427 255 255 255
10.588997840881348 -4.8641438484191895 -1.6542069911956787 255 255 255
11.705810546875 -6.664206504821777 -1.794568419456482 255 255 255
20.574207305908203 -6.0622029304504395 -1.5650334358215332 255 255 255
20.217668533325195 -12.246326446533203 0.782547116279602 255 255 255
3.920262098312378 1.6376410722732544 -0.856041669845581 255 255 255
