ply
format ascii 1.0
element vertex 690
property float x
property float y
property float z
property uchar red
property uchar green
property uchar blue
end_header
3.5637362003326416 1.984622836112976 -0.7724134922027588 255 255 255
3.603362798690796 1.8830819129943848 -0.866179883480072 255 255 255
3.5635297298431396 2.009777069091797 -0.9089878797531128 255 255 255
3.5252468585968018 1.980477213859558 -0.8483408689498901 255 255 255
3.522026538848877 1.873013973236084 -0.8424950242042542 255 255 255
3.4794440269470215 1.936417579650879 -0.770591139793396 255 255 255
3.513490915298462 1.9878560304641724 -0.8718529939651489 255 255 255
3.576246738433838 1.9701067209243774 -0.8893256187438965 255 255 255
3.4976940155029297 1.9969812631607056 -0.7981185913085938 255 255 255
3.4807305335998535 1.948473572731018 -0.8059521317481995 255 255 255
3.4808175563812256 1.9670817852020264 -0.8397442102432251 255 255 255
3.4064581394195557 1.9492963552474976 -0.9035030007362366 255 255 255
3.363107442855835 2.027094602584839 -0.8451455235481262 255 255 255
3.4721531867980957 2.029123306274414 -0.7910134196281433 255 255 255
3.3498916625976562 2.0496089458465576 -0.8905977606773376 255 255 255
3.415937900543213 2.108004331588745 -0.879256546497345 255 255 255
3.414200782775879 2.0997061729431152 -0.7013587355613708 255 255 255
3.3674092292785645 2.0451011657714844 -0.7284000515937805 255 255 255
3.3613674640655518 2.108185052871704 -0.7709887623786926 255 255 255
3.3233642578125 2.096306800842285 -0.8400890827178955 255 255 255
3.2349069118499756 2.0143775939941406 -0.7381656169891357 255 255 255
3.387655258178711 1.9966325759887695 -0.823988676071167 255 255 255
3.3523645401000977 2.044152021408081 -0.6746381521224976 255 255 255
3.2221641540527344 2.030200958251953 -0.8154850006103516 255 255 255
3.2205309867858887 2.0190577507019043 -0.7795694470405579 255 255 255
3.226074457168579 2.1168875694274902 -0.7846046090126038 255 255 255
3.2894954681396484 1.9961367845535278 -0.814557671546936 255 255 255
3.2738285064697266 2.1110482215881348 -0.7806510329246521 255 255 255
3.184075355529785 2.075079917907715 -0.795972466468811 255 255 255
3.25897479057312 2.079192876815796 -0.8327710032463074 255 255 255
3.0956687927246094 2.0857415199279785 -0.7286157608032227 255 255 255
3.2117762565612793 2.0844669342041016 -0.7331010699272156 255 255 255
3.1379244327545166 2.163290500640869 -0.7538185715675354 255 255 255
3.192962408065796 2.1536223888397217 -0.7248513698577881 255 255 255
3.197737455368042 2.0809366703033447 -0.8486031293869019 255 255 255
3.142426013946533 2.0933644771575928 -0.8227645754814148 255 255 255
3.089297294616699 2.099830150604248 -0.7661967277526855 255 255 255
3.216024160385132 2.242594003677368 -0.7596995234489441 255 255 255
3.0364837646484375 2.142637252807617 -0.7269533276557922 255 255 255
3.0491344928741455 2.080625295639038 -0.6970754265785217 255 255 255
3.0658507347106934 2.1336917877197266 -0.6883216500282288 255 255 255
4.760551929473877 -3.963999032974243 -1.3283473253250122 255 255 255
4.796286582946777 -4.014889717102051 -1.4314430952072144 255 255 255
4.8614325523376465 -4.01416015625 -1.3800809383392334 255 255 255
4.86807107925415 -3.9855666160583496 -1.390207052230835 255 255 255
4.864589691162109 -3.903308153152466 -1.4475127458572388 255 255 255
4.90088415145874 -3.891775131225586 -1.2764371633529663 255 255 255
4.892006874084473 -3.849592447280884 -1.3232641220092773 255 255 255
4.865876197814941 -3.828737497329712 -1.3618695735931396 255 255 255
4.847644805908203 -3.8821163177490234 -1.3215309381484985 255 255 255
4.90772819519043 -3.8412678241729736 -1.4287614822387695 255 255 255
4.883091449737549 -3.7848360538482666 -1.4048265218734741 255 255 255
4.854674816131592 -3.675741195678711 -1.348720908164978 255 255 255
4.992255210876465 -3.6768245697021484 -1.317629098892212 255 255 255
4.947366714477539 -3.696315288543701 -1.397558331489563 255 255 255
4.890296459197998 -3.661912679672241 -1.3247450590133667 255 255 255
4.929757118225098 -3.713306188583374 -1.3210842609405518 255 255 255
4.899054050445557 -3.6341748237609863 -1.2890843152999878 255 255 255
4.872992992401123 -3.6630122661590576 -1.3317736387252808 255 255 255
4.957320213317871 -3.6764538288116455 -1.3655333518981934 255 255 255
4.992622375488281 -3.5628528594970703 -1.3425936698913574 255 255 255
4.9623823165893555 -3.4974138736724854 -1.3651597499847412 255 255 255
4.932400703430176 -3.5693886280059814 -1.3448138236999512 255 255 255
4.901975631713867 -3.584162712097168 -1.388309121131897 255 255 255
5.0582404136657715 -3.548759937286377 -1.3399907350540161 255 255 255
5.064838886260986 -3.4997522830963135 -1.2082220315933228 255 255 255
5.066927433013916 -3.5056045055389404 -1.3148287534713745 255 255 255
5.0204033851623535 -3.522573471069336 -1.2783459424972534 255 255 255
5.002560138702393 -3.526353359222412 -1.3983725309371948 255 255 255
5.157873630523682 -3.508429527282715 -1.3408043384552002 255 255 255
5.04463529586792 -3.383906841278076 -1.4933886528015137 255 255 255
5.105865955352783 -3.5254640579223633 -1.223767638206482 255 255 255
5.092001914978027 -3.4238131046295166 -1.3592002391815186 255 255 255
5.075026512145996 -3.4307525157928467 -1.3710683584213257 255 255 255
4.958177089691162 -3.3571414947509766 -1.342485785484314 255 255 255
5.094210624694824 -3.4081597328186035 -1.3275527954101562 255 255 255
5.0883870124816895 -3.2933547496795654 -1.2588509321212769 255 255 255
5.072993278503418 -3.29164981842041 -1.407918095588684 255 255 255
5.118818759918213 -3.304755687713623 -1.372327446937561 255 255 255
5.124729156494141 -3.330721139907837 -1.409814476966858 255 255 255
5.1936845779418945 -3.2434234619140625 -1.3609412908554077 255 255 255
5.1715989112854 -3.2627360820770264 -1.428298830986023 255 255 255
5.109330177307129 -3.2849907875061035 -1.2430082559585571 255 255 255
5.054142951965332 -3.1721086502075195 -1.3217393159866333 255 255 255
5.08243465423584 -3.176698684692383 -1.3320341110229492 255 255 255
5.130561351776123 -3.166595458984375 -1.412319302558899 255 255 255
5.124283790588379 -3.20855975151062 -1.354188323020935 255 255 255
5.109530925750732 -3.157128095626831 -1.410539150238037 255 255 255
5.198774814605713 -3.1689207553863525 -1.3509680032730103 255 255 255
5.160091876983643 -3.126675844192505 -1.2744925022125244 255 255 255
5.078347682952881 -2.9952945709228516 -1.359570860862732 255 255 255
5.093881607055664 -3.1627676486968994 -1.161391258239746 255 255 255
5.126019477844238 -3.1266427040100098 -1.3007733821868896 255 255 255
5.169029235839844 -3.0266926288604736 -1.2846096754074097 255 255 255
5.284248352050781 -3.0175130367279053 -1.2646088600158691 255 255 255
5.321479320526123 -2.9901514053344727 -1.2058205604553223 255 255 255
5.23342752456665 -3.096578598022461 -1.321298599243164 255 255 255
5.300169944763184 -3.0255792140960693 -1.3473615646362305 255 255 255
5.678762435913086 -3.134828567504883 -1.5061180591583252 255 255 255
5.642844200134277 -3.1293184757232666 -1.3435490131378174 255 255 255
5.650814056396484 -3.0643250942230225 -1.4101217985153198 255 255 255
5.771350383758545 -3.2164485454559326 -1.3979226350784302 255 255 255
6.866883754730225 -3.838623046875 -1.8226630687713623 255 255 255
6.962866306304932 -3.8269410133361816 -1.7202701568603516 255 255 255
7.013556480407715 -3.8689777851104736 -1.7225035429000854 255 255 255
6.928933620452881 -3.83497953414917 -1.7288081645965576 255 255 255
6.948825359344482 -3.694905996322632 -1.7493740320205688 255 255 255
7.0560197830200195 -3.7606945037841797 -1.808423399925232 255 255 255
6.987844467163086 -3.7881431579589844 -1.8081778287887573 255 255 255
7.018204689025879 -3.6744794845581055 -1.7364283800125122 255 255 255
7.07405424118042 -3.7133476734161377 -1.8437765836715698 255 255 255
7.003776550292969 -3.6155107021331787 -1.688558578491211 255 255 255
7.017246723175049 -3.557246685028076 -1.7808034420013428 255 255 255
6.9650397300720215 -3.609529972076416 -1.67673659324646 255 255 255
7.068054676055908 -3.541300058364868 -1.7723556756973267 255 255 255
7.0844340324401855 -3.5966074466705322 -1.689499020576477 255 255 255
7.05417537689209 -3.5965354442596436 -1.781346321105957 255 255 255
7.142856597900391 -3.4098739624023438 -1.8096444606781006 255 255 255
7.041895866394043 -3.50188946723938 -1.7037185430526733 255 255 255
7.0278778076171875 -3.5022594928741455 -1.728713035583496 255 255 255
7.0845441818237305 -3.501565456390381 -1.7616395950317383 255 255 255
7.096761703491211 -3.383361339569092 -1.8881306648254395 255 255 255
7.060761451721191 -3.4244184494018555 -1.8128498792648315 255 255 255
7.0953545570373535 -3.401014804840088 -1.7026447057724 255 255 255
7.163328170776367 -3.402444839477539 -1.8811932802200317 255 255 255
7.046792984008789 -3.3615100383758545 -1.8118501901626587 255 255 255
7.118105411529541 -3.3086628913879395 -1.7097244262695312 255 255 255
7.078399181365967 -3.305086851119995 -1.5835824012756348 255 255 255
7.048859119415283 -3.224522590637207 -1.7660479545593262 255 255 255
7.117507457733154 -3.243330478668213 -1.7716888189315796 255 255 255
7.0077900886535645 -3.250175952911377 -1.8107109069824219 255 255 255
7.160816192626953 -3.1860287189483643 -1.7183003425598145 255 255 255
7.150803565979004 -3.126600742340088 -1.8514152765274048 255 255 255
7.16323709487915 -3.204820156097412 -1.7307043075561523 255 255 255
7.075694561004639 -3.1568257808685303 -1.7907453775405884 255 255 255
7.233258247375488 -3.129760503768921 -1.7870986461639404 255 255 255
7.223956108093262 -3.0228161811828613 -1.8048548698425293 255 255 255
7.20361328125 -3.0755603313446045 -1.7210646867752075 255 255 255
7.226546287536621 -2.966118097305298 -1.758995771408081 255 255 255
7.1649274826049805 -3.007492780685425 -1.737818956375122 255 255 255
7.232685565948486 -3.019221782684326 -1.7740181684494019 255 255 255
7.167674541473389 -2.894329071044922 -1.6862369775772095 255 255 255
7.1826910972595215 -3.0031793117523193 -1.7154959440231323 255 255 255
7.318159103393555 -2.928966522216797 -1.766052484512329 255 255 255
7.278351306915283 -2.840010404586792 -1.6968610286712646 255 255 255
7.147392749786377 -2.951658248901367 -1.8426940441131592 255 255 255
7.173717975616455 -2.870673894882202 -1.7183594703674316 255 255 255
7.112987995147705 -2.8345820903778076 -1.6848822832107544 255 255 255
7.2660231590271 -2.8534324169158936 -1.7293059825897217 255 255 255
7.272000312805176 -2.801337718963623 -1.7717227935791016 255 255 255
7.318288803100586 -2.7721214294433594 -1.696795105934143 255 255 255
7.24313497543335 -2.751612424850464 -1.7134758234024048 255 255 255
7.2672953605651855 -2.772869348526001 -1.7294386625289917 255 255 255
7.303159236907959 -2.677337408065796 -1.7548588514328003 255 255 255
7.1521124839782715 -2.645646333694458 -1.759318470954895 255 255 255
7.248283863067627 -2.705188274383545 -1.7541340589523315 255 255 255
7.204842567443848 -2.6511058807373047 -1.7653640508651733 255 255 255
7.373013973236084 -2.7132294178009033 -1.7119255065917969 255 255 255
7.251608848571777 -2.6276931762695312 -1.819958209991455 255 255 255
7.286075115203857 -2.5988566875457764 -1.8046648502349854 255 255 255
7.417453289031982 -2.632643461227417 -1.680862307548523 255 255 255
7.2883148193359375 -2.588658094406128 -1.7780019044876099 255 255 255
7.228468418121338 -2.641113519668579 -1.7701942920684814 255 255 255
7.290360450744629 -2.487011194229126 -1.7578290700912476 255 255 255
7.395511150360107 -2.6091394424438477 -1.6404964923858643 255 255 255
7.381935119628906 -2.561537027359009 -1.7530090808868408 255 255 255
7.293899059295654 -2.417909622192383 -1.8368678092956543 255 255 255
7.366020202636719 -2.4340031147003174 -1.6852556467056274 255 255 255
7.319680213928223 -2.352518081665039 -1.7121309041976929 255 255 255
7.35983943939209 -2.3606858253479004 -1.6790001392364502 255 255 255
7.338296890258789 -2.3316574096679688 -1.615527868270874 255 255 255
7.410343647003174 -2.2409591674804688 -1.6783465147018433 255 255 255
7.343601226806641 -2.3334484100341797 -1.7054786682128906 255 255 255
7.312386989593506 -2.317626476287842 -1.780396580696106 255 255 255
7.323745250701904 -2.3128607273101807 -1.7516199350357056 255 255 255
7.387504577636719 -2.199683666229248 -1.7269117832183838 255 255 255
7.3598313331604 -2.1940927505493164 -1.7376196384429932 255 255 255
7.37130880355835 -2.1904947757720947 -1.7486027479171753 255 255 255
7.335215091705322 -2.132502317428589 -1.7543736696243286 255 255 255
7.394030570983887 -2.1780846118927 -1.7922282218933105 255 255 255
7.3710432052612305 -2.125927448272705 -1.7841999530792236 255 255 255
7.353112697601318 -2.000089406967163 -1.6845848560333252 255 255 255
7.357987880706787 -2.068516731262207 -1.7080656290054321 255 255 255
7.3660736083984375 -2.000946044921875 -1.7406787872314453 255 255 255
7.409241199493408 -2.0764126777648926 -1.711095929145813 255 255 255
7.432465076446533 -1.9406625032424927 -1.753584623336792 255 255 255
7.424097537994385 -1.9245550632476807 -1.6487833261489868 255 255 255
7.516420364379883 -1.915379524230957 -1.6927361488342285 255 255 255
7.408973217010498 -2.0124075412750244 -1.7113608121871948 255 255 255
7.4990234375 -1.8827680349349976 -1.7550432682037354 255 255 255
7.463613033294678 -1.841295599937439 -1.6973234415054321 255 255 255
7.355659008026123 -1.7830438613891602 -1.6519780158996582 255 255 255
7.4716105461120605 -1.8786226511001587 -1.7277343273162842 255 255 255
7.452319622039795 -1.8811018466949463 -1.7162489891052246 255 255 255
7.364490985870361 -1.7400507926940918 -1.7467139959335327 255 255 255
7.332010746002197 -1.7618529796600342 -1.6554917097091675 255 255 255
7.423825740814209 -1.6526572704315186 -1.6336588859558105 255 255 255
7.465482234954834 -1.700097680091858 -1.7239707708358765 255 255 255
7.420922756195068 -1.7034825086593628 -1.7427890300750732 255 255 255
7.473592758178711 -1.644087791442871 -1.7979458570480347 255 255 255
7.393366813659668 -1.6666799783706665 -1.7439411878585815 255 255 255
7.4290900230407715 -1.6749870777130127 -1.6895560026168823 255 255 255
7.456108570098877 -1.54446280002594 -1.6150976419448853 255 255 255
7.474862575531006 -1.5842385292053223 -1.6864304542541504 255 255 255
7.358080863952637 -1.5880004167556763 -1.7775599956512451 255 255 255
7.470409870147705 -1.4281067848205566 -1.691246747970581 255 255 255
7.444034576416016 -1.5990080833435059 -1.722601056098938 255 255 255
7.426886081695557 -1.5047848224639893 -1.640027642250061 255 255 255
7.407398223876953 -1.5084420442581177 -1.695391297340393 255 255 255
7.4330620765686035 -1.4784947633743286 -1.6528769731521606 255 255 255
7.459524154663086 -1.4243406057357788 -1.7141481637954712 255 255 255
7.464462757110596 -1.4318153858184814 -1.6903148889541626 255 255 255
7.489678382873535 -1.4537934064865112 -1.72816002368927 255 255 255
7.528202533721924 -1.328261137008667 -1.7038542032241821 255 255 255
7.470700740814209 -1.4579721689224243 -1.6805152893066406 255 255 255
7.472532749176025 -1.3862937688827515 -1.7372092008590698 255 255 255
7.527248382568359 -1.2964316606521606 -1.7880162000656128 255 255 255
7.42958402633667 -1.1633692979812622 -1.6955440044403076 255 255 255
7.481557846069336 -1.2168415784835815 -1.8154412508010864 255 255 255
7.382775783538818 -1.3139512538909912 -1.7184242010116577 255 255 255
7.480249404907227 -1.3151586055755615 -1.7046256065368652 255 255 255
7.47856330871582 -1.2948671579360962 -1.6474050283432007 255 255 255
7.378339767456055 -1.2565829753875732 -1.6683489084243774 255 255 255
7.4511027336120605 -1.1331357955932617 -1.6598670482635498 255 255 255
7.451487064361572 -1.0639082193374634 -1.7625993490219116 255 255 255
7.510533809661865 -1.0921379327774048 -1.7286962270736694 255 255 255
7.529793739318848 -1.0712324380874634 -1.5727367401123047 255 255 255
7.4333062171936035 -1.0428378582000732 -1.7711557149887085 255 255 255
7.460516929626465 -0.9967052340507507 -1.7044163942337036 255 255 255
7.450899600982666 -0.9674985408782959 -1.7166239023208618 255 255 255
7.473180294036865 -1.009374976158142 -1.665696144104004 255 255 255
7.460961818695068 -0.94865882396698 -1.5962096452713013 255 255 255
7.511664390563965 -0.9124601483345032 -1.689396619796753 255 255 255
7.461395740509033 -0.8866779208183289 -1.6218392848968506 255 255 255
7.512378215789795 -0.9657562971115112 -1.6417770385742188 255 255 255
7.510469436645508 -1.0104409456253052 -1.708907127380371 255 255 255
7.552031993865967 -0.7742694616317749 -1.6598141193389893 255 255 255
7.526912212371826 -0.7656698226928711 -1.6877962350845337 255 255 255
7.475552558898926 -0.787534773349762 -1.758518099784851 255 255 255
7.4054460525512695 -0.7905831336975098 -1.673643708229065 255 255 255
7.503773212432861 -0.839524507522583 -1.6571813821792603 255 255 255
7.439130783081055 -0.7959091067314148 -1.6987409591674805 255 255 255
7.5118303298950195 -0.7844691872596741 -1.6929240226745605 255 255 255
7.542195796966553 -0.6527033448219299 -1.6624431610107422 255 255 255
7.457561016082764 -0.5773218274116516 -1.7293130159378052 255 255 255
7.4280476570129395 -0.583662748336792 -1.6348735094070435 255 255 255
7.458704948425293 -0.6871631145477295 -1.7146399021148682 255 255 255
7.511436939239502 -0.6040758490562439 -1.666059970855713 255 255 255
7.462185859680176 -0.6545437574386597 -1.6256635189056396 255 255 255
7.495138645172119 -0.6651480793952942 -1.676713228225708 255 255 255
7.422292232513428 -0.6325907111167908 -1.63294517993927 255 255 255
7.403443813323975 -0.4927152395248413 -1.6485121250152588 255 255 255
7.44188928604126 -0.5061528086662292 -1.7053792476654053 255 255 255
7.446586608886719 -0.3418579697608948 -1.685836672782898 255 255 255
7.402281284332275 -0.4342867136001587 -1.6915196180343628 255 255 255
7.3737874031066895 -0.4140847325325012 -1.6983656883239746 255 255 255
7.509281158447266 -0.4519254267215729 -1.5864531993865967 255 255 255
7.425862789154053 -0.32581406831741333 -1.6979800462722778 255 255 255
7.468981742858887 -0.3667571246623993 -1.734017014503479 255 255 255
7.382445335388184 -0.3405285179615021 -1.6578704118728638 255 255 255
7.474334239959717 -0.3215644955635071 -1.6234195232391357 255 255 255
6.95688533782959 -0.29546406865119934 -1.6634639501571655 255 255 255
7.073754787445068 -0.30239972472190857 -1.5944470167160034 255 255 255
7.031375408172607 -0.2631378471851349 -1.7073923349380493 255 255 255
6.995729923248291 -0.2427237331867218 -1.6453028917312622 255 255 255
7.045681953430176 -0.3404797911643982 -1.6182552576065063 255 255 255
6.975073337554932 -0.12201680988073349 -1.5572969913482666 255 255 255
7.043033599853516 -0.16691954433918 -1.6351672410964966 255 255 255
6.918065071105957 -0.14137078821659088 -1.6503888368606567 255 255 255
6.956787109375 -0.168701633810997 -1.6398634910583496 255 255 255
7.040054798126221 -0.06078554689884186 -1.7416759729385376 255 255 255
6.943435192108154 -0.03365759178996086 -1.5819482803344727 255 255 255
6.899186134338379 -0.09119926393032074 -1.6356470584869385 255 255 255
7.0989251136779785 0.03590461239218712 -1.6622111797332764 255 255 255
6.960527420043945 -0.012223216705024242 -1.682220697402954 255 255 255
7.011481761932373 0.010538820177316666 -1.6421772241592407 255 255 255
7.0224199295043945 0.09351137280464172 -1.6494170427322388 255 255 255
6.990151882171631 0.08634553849697113 -1.5948753356933594 255 255 255
6.982708930969238 -0.008254156447947025 -1.6414610147476196 255 255 255
7.055775165557861 0.1371617615222931 -1.7059555053710938 255 255 255
6.954023361206055 0.17284679412841797 -1.5570179224014282 255 255 255
6.954948425292969 0.09916197508573532 -1.6278523206710815 255 255 255
6.907792568206787 0.05161089822649956 -1.646061897277832 255 255 255
6.944023609161377 0.1709672063589096 -1.5531232357025146 255 255 255
6.936599254608154 0.28580138087272644 -1.6511789560317993 255 255 255
7.006335735321045 0.24741621315479279 -1.599750280380249 255 255 255
6.955531597137451 0.24950706958770752 -1.6381916999816895 255 255 255
6.982308387756348 0.329914391040802 -1.5879663228988647 255 255 255
6.94719934463501 0.24923838675022125 -1.5619399547576904 255 255 255
6.87798547744751 0.36064305901527405 -1.6330795288085938 255 255 255
6.953805446624756 0.35355985164642334 -1.6623039245605469 255 255 255
6.961075782775879 0.3648951053619385 -1.515346646308899 255 255 255
6.946591377258301 0.35515061020851135 -1.5437283515930176 255 255 255
6.946407318115234 0.2871639132499695 -1.6199020147323608 255 255 255
6.941437721252441 0.34161967039108276 -1.6328157186508179 255 255 255
6.889584064483643 0.4000670909881592 -1.629197597503662 255 255 255
6.9369096755981445 0.4023008644580841 -1.5970606803894043 255 255 255
6.968639850616455 0.600307285785675 -1.6120686531066895 255 255 255
7.010993957519531 0.48742517828941345 -1.6951183080673218 255 255 255
6.9144206047058105 0.46889883279800415 -1.6665925979614258 255 255 255
6.865591049194336 0.5518444776535034 -1.5951298475265503 255 255 255
6.894792556762695 0.5974199771881104 -1.5845613479614258 255 255 255
6.976027488708496 0.6459425091743469 -1.6368727684020996 255 255 255
6.892585754394531 0.628188967704773 -1.6241652965545654 255 255 255
6.8849663734436035 0.5949240326881409 -1.5554656982421875 255 255 255
6.8695783615112305 0.5279796123504639 -1.7012768983840942 255 255 255
6.831393718719482 0.7305379509925842 -1.6601312160491943 255 255 255
6.79228401184082 0.6209511756896973 -1.6317243576049805 255 255 255
6.816631317138672 0.6947541236877441 -1.619308590888977 255 255 255
6.937692642211914 0.7427303194999695 -1.6215392351150513 255 255 255
6.825351238250732 0.7230952978134155 -1.5812911987304688 255 255 255
6.940923690795898 0.6964401006698608 -1.580147385597229 255 255 255
6.8788909912109375 0.7312577962875366 -1.5575182437896729 255 255 255
6.903354644775391 0.7752807140350342 -1.6991076469421387 255 255 255
6.8827691078186035 0.8123965263366699 -1.6110461950302124 255 255 255
6.795408248901367 0.8793408274650574 -1.6314036846160889 255 255 255
6.848586559295654 0.8140735626220703 -1.594321370124817 255 255 255
6.8860344886779785 0.8627566695213318 -1.5227175951004028 255 255 255
6.824527740478516 0.8375976085662842 -1.6057709455490112 255 255 255
6.842791557312012 0.8512510657310486 -1.6031068563461304 255 255 255
6.903045177459717 0.9590036869049072 -1.6375929117202759 255 255 255
6.900620460510254 0.8700842261314392 -1.546261191368103 255 255 255
6.900012016296387 1.025424838066101 -1.6167501211166382 255 255 255
6.867445468902588 0.9924158453941345 -1.6013151407241821 255 255 255
6.76303243637085 0.9392959475517273 -1.6335113048553467 255 255 255
6.859408855438232 0.9421103000640869 -1.5769792795181274 255 255 255
6.819394111633301 1.0031208992004395 -1.613051176071167 255 255 255
6.730978488922119 1.0405731201171875 -1.7345702648162842 255 255 255
6.823507785797119 1.0392078161239624 -1.6382728815078735 255 255 255
6.783744812011719 1.097188115119934 -1.5778546333312988 255 255 255
6.75172758102417 1.118452548980713 -1.638751745223999 255 255 255
6.877589702606201 1.1055867671966553 -1.6111212968826294 255 255 255
6.80945348739624 1.2231545448303223 -1.5800037384033203 255 255 255
6.767207145690918 1.25079345703125 -1.5813225507736206 255 255 255
6.710275650024414 1.2254359722137451 -1.6551135778427124 255 255 255
6.861612319946289 1.3066399097442627 -1.5853954553604126 255 255 255
6.88610315322876 1.2473087310791016 -1.66267991065979 255 255 255
6.717618465423584 1.2606006860733032 -1.6008164882659912 255 255 255
6.83432674407959 1.2803618907928467 -1.5104126930236816 255 255 255
6.814345359802246 1.2761417627334595 -1.6272286176681519 255 255 255
6.720003128051758 1.2823808193206787 -1.6460835933685303 255 255 255
6.747045516967773 1.351200819015503 -1.63840913772583 255 255 255
6.840703964233398 1.3644492626190186 -1.644134759902954 255 255 255
6.713030815124512 1.3410511016845703 -1.6234129667282104 255 255 255
6.672825813293457 1.3525878190994263 -1.6091686487197876 255 255 255
6.7882771492004395 1.4224661588668823 -1.6612522602081299 255 255 255
6.734629154205322 1.4284625053405762 -1.638870358467102 255 255 255
6.62991189956665 1.4239439964294434 -1.5706731081008911 255 255 255
6.793948173522949 1.5284245014190674 -1.6110124588012695 255 255 255
6.699546813964844 1.501869797706604 -1.5342373847961426 255 255 255
6.574192523956299 1.4548521041870117 -1.6324429512023926 255 255 255
6.716598987579346 1.570103406906128 -1.613477349281311 255 255 255
6.737391948699951 1.57915461063385 -1.5965681076049805 255 255 255
6.756653785705566 1.588361144065857 -1.610142469406128 255 255 255
6.682622909545898 1.5616010427474976 -1.681735873222351 255 255 255
6.54888916015625 1.55068838596344 -1.657448649406433 255 255 255
6.651616096496582 1.5715398788452148 -1.6535942554473877 255 255 255
6.626695156097412 1.602319359779358 -1.6266226768493652 255 255 255
6.648680210113525 1.5917843580245972 -1.470353603363037 255 255 255
6.632167339324951 1.624461054801941 -1.5698543787002563 255 255 255
6.5002031326293945 1.6894720792770386 -1.5928664207458496 255 255 255
6.534892559051514 1.7254486083984375 -1.5271720886230469 255 255 255
6.437036514282227 1.7086071968078613 -1.5579776763916016 255 255 255
5.246734142303467 1.3903305530548096 -1.2623664140701294 255 255 255
5.250506401062012 1.3975193500518799 -1.2121307849884033 255 255 255
5.276740550994873 1.4224567413330078 -1.1995046138763428 255 255 255
5.264655590057373 1.3969799280166626 -1.216248631477356 255 255 255
5.179767608642578 1.4871686697006226 -1.3189599514007568 255 255 255
5.048610210418701 1.4190914630889893 -1.1496524810791016 255 255 255
5.051116466522217 1.3741090297698975 -1.1663786172866821 255 255 255
4.905503749847412 1.3829028606414795 -1.2315341234207153 255 255 255
4.9511284828186035 1.4962913990020752 -1.2091649770736694 255 255 255
4.951664924621582 1.397737979888916 -1.1035302877426147 255 255 255
4.951357841491699 1.4546152353286743 -1.179714322090149 255 255 255
4.882955074310303 1.4948039054870605 -1.1577717065811157 255 255 255
4.969066143035889 1.4628078937530518 -1.1960487365722656 255 255 255
4.8933024406433105 1.4203169345855713 -1.174973487854004 255 255 255
4.854024887084961 1.4053137302398682 -1.1391152143478394 255 255 255
4.877821922302246 1.4546668529510498 -1.1095011234283447 255 255 255
4.817220687866211 1.4659409523010254 -1.282426357269287 255 255 255
4.874215602874756 1.5493947267532349 -1.2210403680801392 255 255 255
4.762001037597656 1.5509517192840576 -1.180536150932312 255 255 255
4.764915943145752 1.5371193885803223 -1.1061310768127441 255 255 255
4.682238578796387 1.481513500213623 -1.0887664556503296 255 255 255
4.755710124969482 1.509155511856079 -1.0396474599838257 255 255 255
4.580197334289551 1.6222575902938843 -1.0839823484420776 255 255 255
4.630134582519531 1.6455360651016235 -1.1682167053222656 255 255 255
4.610682010650635 1.4917155504226685 -1.0488721132278442 255 255 255
4.56158971786499 1.6763887405395508 -1.0260142087936401 255 255 255
4.459743499755859 1.59734046459198 -1.1270925998687744 255 255 255
4.4992852210998535 1.5239129066467285 -1.120642900466919 255 255 255
4.497662544250488 1.6711829900741577 -1.023149013519287 255 255 255
4.458324432373047 1.541179895401001 -1.1208550930023193 255 255 255
4.522126197814941 1.6620789766311646 -1.1027812957763672 255 255 255
4.490203380584717 1.560125708580017 -1.0888667106628418 255 255 255
4.62168550491333 1.601568341255188 -1.0989302396774292 255 255 255
4.359611988067627 1.6270053386688232 -0.9976372122764587 255 255 255
4.328939437866211 1.6790419816970825 -1.08116614818573 255 255 255
4.326825141906738 1.672887921333313 -1.059547781944275 255 255 255
4.369410991668701 1.6561342477798462 -1.125840663909912 255 255 255
4.320674419403076 1.6415910720825195 -1.065971851348877 255 255 255
4.49296760559082 1.6705811023712158 -1.0979596376419067 255 255 255
4.233938217163086 1.5826600790023804 -0.9989848136901855 255 255 255
4.181142330169678 1.674485445022583 -1.0320768356323242 255 255 255
4.2302117347717285 1.6590954065322876 -1.057112693786621 255 255 255
4.156002044677734 1.6647542715072632 -1.0287209749221802 255 255 255
4.104037761688232 1.7214460372924805 -1.0462114810943604 255 255 255
4.184755325317383 1.6442745923995972 -0.9700883626937866 255 255 255
4.1017069816589355 1.715606689453125 -0.9062528014183044 255 255 255
4.151449680328369 1.6887121200561523 -0.9093655943870544 255 255 255
4.056914329528809 1.7809324264526367 -0.9202691912651062 255 255 255
4.0134429931640625 1.7185341119766235 -0.9692798256874084 255 255 255
4.080382823944092 1.7424969673156738 -0.9445805549621582 255 255 255
4.017911911010742 1.7229273319244385 -0.9288176894187927 255 255 255
4.082820892333984 1.7643992900848389 -0.9545407891273499 255 255 255
4.006932258605957 1.7002601623535156 -1.0146310329437256 255 255 255
4.045563220977783 1.71707022190094 -1.0577245950698853 255 255 255
3.969639778137207 1.7589510679244995 -0.9335631132125854 255 255 255
4.013189315795898 1.7630311250686646 -1.0078946352005005 255 255 255
3.910201072692871 1.6912237405776978 -0.9185643792152405 255 255 255
3.952195882797241 1.6687098741531372 -1.0232359170913696 255 255 255
3.9120962619781494 1.8469948768615723 -0.96662437915802 255 255 255
3.9172937870025635 1.8669499158859253 -0.9883466362953186 255 255 255
3.888383388519287 1.756585717201233 -0.9094479084014893 255 255 255
3.8648924827575684 1.8303000926971436 -0.9043430685997009 255 255 255
3.898313283920288 1.7711677551269531 -1.0324201583862305 255 255 255
3.7638328075408936 1.8332629203796387 -0.9844393730163574 255 255 255
3.779376268386841 1.8482608795166016 -0.9067898988723755 255 255 255
3.8213202953338623 1.764304757118225 -0.9743357300758362 255 255 255
3.7271041870117188 1.8433119058609009 -0.9991360902786255 255 255 255
3.736326217651367 1.8758198022842407 -0.8506308197975159 255 255 255
3.820711851119995 1.890369176864624 -0.9461498856544495 255 255 255
3.8781626224517822 1.8561956882476807 -0.9426630735397339 255 255 255
3.732579469680786 1.92550528049469 -0.9574176073074341 255 255 255
3.5890910625457764 1.8124330043792725 -0.8840650320053101 255 255 255
3.6597983837127686 1.884696364402771 -0.9113970994949341 255 255 255
3.6184496879577637 1.8976325988769531 -0.9106539487838745 255 255 255
3.631319522857666 1.9856879711151123 -0.978872537612915 255 255 255
3.5840859413146973 1.7544056177139282 -0.8963649272918701 255 255 255
3.590275526046753 1.9514802694320679 -0.8586621284484863 255 255 255
3.602337121963501 1.9360162019729614 -0.8916985988616943 255 255 255
3.5875403881073 1.872828722000122 -0.9539163708686829 255 255 255
3.588893413543701 1.8482016324996948 -0.9131647348403931 255 255 255
3.6005666255950928 1.9019008874893188 -0.9397834539413452 255 255 255
3.584958553314209 1.8556838035583496 -0.9067767858505249 255 255 255
3.5656251907348633 1.929149866104126 -0.8438152074813843 255 255 255
3.572831153869629 1.9321051836013794 -0.8428131937980652 255 255 255
3.4689812660217285 1.9562515020370483 -0.8996452689170837 255 255 255
3.4944992065429688 1.9940589666366577 -0.8887143135070801 255 255 255
3.4310905933380127 1.9091222286224365 -0.9454128742218018 255 255 255
3.4328036308288574 1.890438199043274 -0.9563330411911011 255 255 255
3.472320556640625 1.9706512689590454 -0.8708850741386414 255 255 255
3.4275496006011963 1.989797830581665 -0.7757242321968079 255 255 255
3.3942267894744873 1.9166531562805176 -0.9103895425796509 255 255 255
3.4207684993743896 2.0383119583129883 -0.799522340297699 255 255 255
3.338592529296875 1.995984435081482 -0.8184793591499329 255 255 255
3.424990653991699 1.8918193578720093 -0.8318252563476562 255 255 255
3.3622019290924072 1.9702647924423218 -0.9245600700378418 255 255 255
3.4422037601470947 2.038130283355713 -0.8518052101135254 255 255 255
3.4409425258636475 1.9225795269012451 -0.8671104311943054 255 255 255
3.3635904788970947 1.948555588722229 -0.8409441113471985 255 255 255
3.3251352310180664 1.901115894317627 -0.9567479491233826 255 255 255
4.939193248748779 -3.6674656867980957 -1.356064796447754 255 255 255
4.894337177276611 -3.5153396129608154 -1.3209730386734009 255 255 255
5.025263786315918 -3.516559600830078 -1.328207015991211 255 255 255
4.930660724639893 -3.478675603866577 -1.350090742111206 255 255 255
4.846698760986328 -3.4720404148101807 -1.4106168746948242 255 255 255
4.996771812438965 -3.5332555770874023 -1.4084491729736328 255 255 255
4.938488960266113 -3.3306126594543457 -1.416979193687439 255 255 255
5.012359142303467 -3.4733755588531494 -1.3821214437484741 255 255 255
4.953241348266602 -3.3828437328338623 -1.4640413522720337 255 255 255
4.8722453117370605 -3.3083391189575195 -1.40131676197052 255 255 255
4.927215099334717 -3.3361966609954834 -1.346476674079895 255 255 255
4.970568656921387 -3.340437889099121 -1.3143762350082397 255 255 255
5.026565074920654 -3.299791097640991 -1.4129446744918823 255 255 255
5.051569938659668 -3.326768159866333 -1.4110840559005737 255 255 255
4.983208656311035 -3.2875988483428955 -1.3850091695785522 255 255 255
4.944095134735107 -3.2976174354553223 -1.3295706510543823 255 255 255
5.018975257873535 -3.1904845237731934 -1.3624871969223022 255 255 255
4.986799716949463 -3.1482791900634766 -1.441022515296936 255 255 255
4.946162223815918 -3.3127923011779785 -1.3734452724456787 255 255 255
5.081112861633301 -3.1788721084594727 -1.2902697324752808 255 255 255
5.002511024475098 -3.1998369693756104 -1.319055199623108 255 255 255
5.0360822677612305 -3.1354379653930664 -1.384268045425415 255 255 255
5.047211647033691 -3.195775270462036 -1.3019509315490723 255 255 255
5.021573543548584 -3.080488920211792 -1.3676426410675049 255 255 255
5.105514049530029 -3.0422158241271973 -1.292701244354248 255 255 255
5.001645565032959 -3.1624178886413574 -1.3939863443374634 255 255 255
5.038376808166504 -3.164623498916626 -1.4177521467208862 255 255 255
4.947389602661133 -3.159656286239624 -1.3437165021896362 255 255 255
5.000997543334961 -2.97849702835083 -1.3826347589492798 255 255 255
5.100935935974121 -3.0251317024230957 -1.3769298791885376 255 255 255
5.162599086761475 -3.00590181350708 -1.4348326921463013 255 255 255
5.325454235076904 -3.0995237827301025 -1.4161218404769897 255 255 255
5.338316440582275 -2.9789412021636963 -1.472862720489502 255 255 255
5.328819751739502 -2.995884656906128 -1.4236890077590942 255 255 255
5.433775424957275 -3.0282821655273438 -1.4578770399093628 255 255 255
5.555967330932617 -3.2093937397003174 -1.4846636056900024 255 255 255
5.64554500579834 -3.142418146133423 -1.5333722829818726 255 255 255
6.5741286277771 -3.595083236694336 -1.758218765258789 255 255 255
6.55850887298584 -3.5861239433288574 -1.7877488136291504 255 255 255
6.671562671661377 -3.5788674354553223 -1.6943025588989258 255 255 255
6.627525329589844 -3.5510036945343018 -1.7263597249984741 255 255 255
6.664851188659668 -3.566694736480713 -1.7107213735580444 255 255 255
6.655227184295654 -3.550617218017578 -1.748335361480713 255 255 255
6.655951023101807 -3.5356438159942627 -1.70993173122406 255 255 255
6.633482933044434 -3.4770853519439697 -1.8020827770233154 255 255 255
6.749078273773193 -3.4688162803649902 -1.7390613555908203 255 255 255
6.603569984436035 -3.4767696857452393 -1.7238024473190308 255 255 255
6.682960510253906 -3.4095702171325684 -1.734991192817688 255 255 255
6.707921504974365 -3.379399061203003 -1.8671984672546387 255 255 255
6.6031174659729 -3.3795042037963867 -1.6518985033035278 255 255 255
6.6747212409973145 -3.3841357231140137 -1.6641215085983276 255 255 255
6.6548004150390625 -3.394591808319092 -1.7492706775665283 255 255 255
6.719269275665283 -3.3279917240142822 -1.7826124429702759 255 255 255
6.793989658355713 -3.322471857070923 -1.7980356216430664 255 255 255
6.707597732543945 -3.2725090980529785 -1.779275894165039 255 255 255
6.693897247314453 -3.314276933670044 -1.749069094657898 255 255 255
6.83920955657959 -3.227933883666992 -1.7807912826538086 255 255 255
6.8006744384765625 -3.24341082572937 -1.687662124633789 255 255 255
6.7356367111206055 -3.175895929336548 -1.661730408668518 255 255 255
6.734883785247803 -3.2199530601501465 -1.7112642526626587 255 255 255
6.801652431488037 -3.1320531368255615 -1.6232082843780518 255 255 255
6.709213733673096 -3.160551071166992 -1.7992582321166992 255 255 255
6.808198928833008 -3.1551308631896973 -1.6797311305999756 255 255 255
6.7726640701293945 -3.049823045730591 -1.7485402822494507 255 255 255
6.7835235595703125 -3.0366673469543457 -1.7107887268066406 255 255 255
6.793551445007324 -3.102663993835449 -1.7667542695999146 255 255 255
6.867767810821533 -2.9696969985961914 -1.7402235269546509 255 255 255
6.772960662841797 -3.0014326572418213 -1.7194095849990845 255 255 255
6.789688587188721 -2.900454044342041 -1.7356101274490356 255 255 255
6.850651264190674 -2.8769233226776123 -1.7886689901351929 255 255 255
6.795196056365967 -2.9962940216064453 -1.6852960586547852 255 255 255
6.761715888977051 -2.8955636024475098 -1.7715798616409302 255 255 255
6.87758207321167 -2.9007740020751953 -1.7350529432296753 255 255 255
6.853089332580566 -2.939284086227417 -1.6951128244400024 255 255 255
6.920852184295654 -2.829923391342163 -1.6595561504364014 255 255 255
6.837553977966309 -2.8526723384857178 -1.7983577251434326 255 255 255
6.887301445007324 -2.9011380672454834 -1.7670490741729736 255 255 255
6.89241886138916 -2.794398784637451 -1.8405488729476929 255 255 255
6.826006889343262 -2.7699577808380127 -1.760843276977539 255 255 255
6.91763162612915 -2.7413489818573 -1.6570947170257568 255 255 255
6.8336591720581055 -2.7669620513916016 -1.780380368232727 255 255 255
6.867350101470947 -2.685746669769287 -1.7071666717529297 255 255 255
6.865605354309082 -2.7479946613311768 -1.684859275817871 255 255 255
6.910817623138428 -2.641956090927124 -1.6667799949645996 255 255 255
6.83962869644165 -2.62485671043396 -1.7889339923858643 255 255 255
6.85756778717041 -2.4945876598358154 -1.6445906162261963 255 255 255
6.8809590339660645 -2.619550943374634 -1.729477882385254 255 255 255
6.910192012786865 -2.502746343612671 -1.693666934967041 255 255 255
6.884008407592773 -2.5566999912261963 -1.785800814628601 255 255 255
6.97957706451416 -2.5588784217834473 -1.7486166954040527 255 255 255
6.908668041229248 -2.4816651344299316 -1.723073959350586 255 255 255
7.030796051025391 -2.4632725715637207 -1.7076596021652222 255 255 255
6.853386878967285 -2.4718871116638184 -1.7775647640228271 255 255 255
6.960399627685547 -2.4241816997528076 -1.7442445755004883 255 255 255
6.897549152374268 -2.419841766357422 -1.756050944328308 255 255 255
6.978951454162598 -2.321340322494507 -1.7761144638061523 255 255 255
6.9302659034729 -2.337921142578125 -1.7136119604110718 255 255 255
7.019989490509033 -2.4022445678710938 -1.7143267393112183 255 255 255
6.942338466644287 -2.35587477684021 -1.7857052087783813 255 255 255
6.980642795562744 -2.2871546745300293 -1.6559052467346191 255 255 255
7.008554458618164 -2.352862596511841 -1.7663432359695435 255 255 255
7.034131050109863 -2.1998322010040283 -1.774385690689087 255 255 255
7.016236782073975 -2.3160452842712402 -1.6178267002105713 255 255 255
7.031726360321045 -2.2346503734588623 -1.6572821140289307 255 255 255
6.971807479858398 -2.225741386413574 -1.6590021848678589 255 255 255
6.933660507202148 -2.209951639175415 -1.7720650434494019 255 255 255
6.927417278289795 -2.287443161010742 -1.6134525537490845 255 255 255
7.001731872558594 -2.1246843338012695 -1.7267261743545532 255 255 255
7.055531978607178 -2.1628401279449463 -1.6492677927017212 255 255 255
7.0292158126831055 -2.156071186065674 -1.7554206848144531 255 255 255
6.955973148345947 -2.073547124862671 -1.713136076927185 255 255 255
6.999142646789551 -2.052738904953003 -1.6980851888656616 255 255 255
6.978548049926758 -2.0210039615631104 -1.7033567428588867 255 255 255
6.995270729064941 -2.0078985691070557 -1.719042181968689 255 255 255
6.9647955894470215 -1.960949420928955 -1.630054235458374 255 255 255
7.011561393737793 -1.9550780057907104 -1.6137843132019043 255 255 255
6.994780540466309 -1.9889745712280273 -1.655238389968872 255 255 255
7.004392147064209 -1.930891990661621 -1.6670178174972534 255 255 255
6.975832939147949 -1.8658275604248047 -1.7219767570495605 255 255 255
7.132600784301758 -1.9591186046600342 -1.7165709733963013 255 255 255
7.040248394012451 -1.8216279745101929 -1.672796607017517 255 255 255
6.981446743011475 -1.8383069038391113 -1.7254914045333862 255 255 255
7.128151893615723 -1.7795301675796509 -1.7231470346450806 255 255 255
7.055698394775391 -1.8146135807037354 -1.7516329288482666 255 255 255
7.094342231750488 -1.7018955945968628 -1.5714735984802246 255 255 255
6.951869964599609 -1.7813738584518433 -1.6068307161331177 255 255 255
7.06712007522583 -1.7733675241470337 -1.7134820222854614 255 255 255
7.068770885467529 -1.7601277828216553 -1.6633018255233765 255 255 255
7.118155479431152 -1.7598179578781128 -1.6938828229904175 255 255 255
7.14253044128418 -1.7443008422851562 -1.7652524709701538 255 255 255
7.0437493324279785 -1.7175977230072021 -1.6888090372085571 255 255 255
7.114631652832031 -1.6583853960037231 -1.7387815713882446 255 255 255
7.002981185913086 -1.6895028352737427 -1.6731514930725098 255 255 255
7.181772708892822 -1.6770541667938232 -1.6661559343338013 255 255 255
7.095841884613037 -1.6000354290008545 -1.6789791584014893 255 255 255
7.060291290283203 -1.5972381830215454 -1.7296429872512817 255 255 255
7.185303211212158 -1.4758110046386719 -1.7351601123809814 255 255 255
7.076601028442383 -1.468855857849121 -1.568573236465454 255 255 255
7.071650981903076 -1.5593247413635254 -1.6665961742401123 255 255 255
7.115361213684082 -1.438340425491333 -1.7417093515396118 255 255 255
6.978182315826416 -1.4527418613433838 -1.7947052717208862 255 255 255
7.060627460479736 -1.4984731674194336 -1.6801164150238037 255 255 255
7.049831867218018 -1.3436014652252197 -1.6275763511657715 255 255 255
7.034447193145752 -1.4299291372299194 -1.671739935874939 255 255 255
7.022721290588379 -1.4062515497207642 -1.8057100772857666 255 255 255
7.100500583648682 -1.320109486579895 -1.7392141819000244 255 255 255
7.106149196624756 -1.2542296648025513 -1.6663247346878052 255 255 255
7.091028213500977 -1.2645924091339111 -1.66545569896698 255 255 255
7.107110500335693 -1.2699155807495117 -1.6617897748947144 255 255 255
7.121563911437988 -1.263940453529358 -1.7030900716781616 255 255 255
7.099595069885254 -1.2327606678009033 -1.7165722846984863 255 255 255
7.0677947998046875 -1.193490743637085 -1.5874348878860474 255 255 255
7.042623996734619 -1.2030067443847656 -1.6454899311065674 255 255 255
7.086896896362305 -1.200799822807312 -1.698654055595398 255 255 255
7.067452907562256 -1.1110066175460815 -1.6636483669281006 255 255 255
7.101550102233887 -1.188093900680542 -1.7179467678070068 255 255 255
7.092260837554932 -1.1141729354858398 -1.7280232906341553 255 255 255
7.200302600860596 -1.10049307346344 -1.6496100425720215 255 255 255
7.033722877502441 -1.0328031778335571 -1.6547677516937256 255 255 255
7.2402143478393555 -1.083185076713562 -1.7106118202209473 255 255 255
7.041518688201904 -1.051379919052124 -1.7276979684829712 255 255 255
7.126373291015625 -1.0071030855178833 -1.6636326313018799 255 255 255
7.10871696472168 -0.9816434979438782 -1.6743212938308716 255 255 255
7.038692951202393 -0.9925135374069214 -1.5796211957931519 255 255 255
7.2047600746154785 -0.9054614305496216 -1.6294877529144287 255 255 255
7.125969409942627 -0.8978309631347656 -1.7410557270050049 255 255 255
7.168947219848633 -0.9067354202270508 -1.6905659437179565 255 255 255
7.104135036468506 -0.9193723797798157 -1.6530452966690063 255 255 255
7.048800468444824 -0.9147342443466187 -1.666562795639038 255 255 255
7.053033828735352 -0.7781563997268677 -1.7204073667526245 255 255 255
7.096107006072998 -0.8370750546455383 -1.6909174919128418 255 255 255
7.059366703033447 -0.7722585797309875 -1.7241840362548828 255 255 255
7.063364505767822 -0.8182294964790344 -1.597949743270874 255 255 255
7.094013214111328 -0.8131257891654968 -1.653995394706726 255 255 255
7.086381912231445 -0.7590915560722351 -1.714274287223816 255 255 255
7.050594806671143 -0.6661475896835327 -1.6756601333618164 255 255 255
7.0263214111328125 -0.6533429026603699 -1.6325273513793945 255 255 255
7.082813739776611 -0.6091111302375793 -1.6845134496688843 255 255 255
7.198172092437744 -0.6906764507293701 -1.6282552480697632 255 255 255
7.052341461181641 -0.6622858643531799 -1.6228926181793213 255 255 255
7.049991130828857 -0.5809451341629028 -1.646630048751831 255 255 255
7.089839458465576 -0.5926405787467957 -1.7237004041671753 255 255 255
7.13970947265625 -0.5581881403923035 -1.6996928453445435 255 255 255
7.078675270080566 -0.6665766835212708 -1.5836851596832275 255 255 255
7.146873950958252 -0.4253278970718384 -1.5447531938552856 255 255 255
7.162483215332031 -0.478301465511322 -1.674838662147522 255 255 255
7.183154582977295 -0.45182883739471436 -1.6858422756195068 255 255 255
7.011989593505859 -0.6080825328826904 -1.6548954248428345 255 255 255
7.097588539123535 -0.4837290644645691 -1.5671933889389038 255 255 255
7.122027397155762 -0.3823854923248291 -1.6535862684249878 255 255 255
7.004278659820557 -0.5151792168617249 -1.6349241733551025 255 255 255
7.060601234436035 -0.40120843052864075 -1.6522892713546753 255 255 255
7.086120128631592 -0.32699328660964966 -1.6771228313446045 255 255 255
7.04118013381958 -0.2535732090473175 -1.7082654237747192 255 255 255
7.027702331542969 -0.2363547384738922 -1.6404869556427002 255 255 255
7.008845329284668 -0.31004419922828674 -1.5739405155181885 255 255 255
6.863198280334473 -0.3032694160938263 -1.6005651950836182 255 255 255
6.800499439239502 -0.31827378273010254 -1.610374927520752 255 255 255
6.789067268371582 -0.16974079608917236 -1.6409186124801636 255 255 255
6.749476909637451 -0.2421775460243225 -1.6633172035217285 255 255 255
6.730862140655518 -0.2317885011434555 -1.7014096975326538 255 255 255
6.820881366729736 -0.19811727106571198 -1.7301398515701294 255 255 255
6.8576741218566895 -0.16033393144607544 -1.5739437341690063 255 255 255
6.806225299835205 -0.15383107960224152 -1.6141611337661743 255 255 255
6.82196044921875 -0.173566535115242 -1.6710337400436401 255 255 255
6.700340270996094 -0.07601018995046616 -1.7142914533615112 255 255 255
6.731080532073975 -0.08196993172168732 -1.6034653186798096 255 255 255
6.692338943481445 -0.045763347297906876 -1.5672557353973389 255 255 255
6.787528991699219 -0.056097447872161865 -1.7440423965454102 255 255 255
6.749298572540283 -0.09039060771465302 -1.6254918575286865 255 255 255
6.704402446746826 -0.058294877409935 -1.6793044805526733 255 255 255
6.777440071105957 0.02769310027360916 -1.5598053932189941 255 255 255
6.735324382781982 -0.005991444922983646 -1.6843129396438599 255 255 255
6.716866970062256 0.17357097566127777 -1.6154680252075195 255 255 255
6.71182107925415 0.12277187407016754 -1.6143070459365845 255 255 255
6.772055149078369 0.12915821373462677 -1.5621907711029053 255 255 255
6.759903430938721 0.09958477318286896 -1.6489406824111938 255 255 255
6.685885429382324 0.16669604182243347 -1.618466854095459 255 255 255
6.727678298950195 0.21471832692623138 -1.5620150566101074 255 255 255
6.7856903076171875 0.09786901623010635 -1.5826880931854248 255 255 255
6.683716297149658 0.27828580141067505 -1.6511815786361694 255 255 255
6.692819595336914 0.2505517899990082 -1.515122413635254 255 255 255
6.792722702026367 0.23599247634410858 -1.5699212551116943 255 255 255
6.709371089935303 0.30753904581069946 -1.6080793142318726 255 255 255
6.7088823318481445 0.2073940634727478 -1.5919630527496338 255 255 255
6.696150779724121 0.2651674747467041 -1.666642427444458 255 255 255
6.706981658935547 0.34793800115585327 -1.5480700731277466 255 255 255
6.637631893157959 0.2513190805912018 -1.6441951990127563 255 255 255
