ply
format ascii 1.0
element vertex 691
property float x
property float y
property float z
property uchar red
property uchar green
property uchar blue
end_header
16.290380477905273 -4.165361404418945 -1.5012809038162231 255 255 255
9.145660400390625 4.725069999694824 0.5275498628616333 255 255 255
12.186224937438965 -7.756099224090576 0.40132245421409607 255 255 255
7.973644256591797 4.098495006561279 -0.8536864519119263 255 255 255
14.758403778076172 -2.7396483421325684 -1.7425808906555176 255 255 255
15.401885032653809 -4.369699001312256 -1.682889699935913 255 255 255
13.122203826904297 7.144799709320068 -0.6605335474014282 255 255 255
13.228090286254883 0.39795804023742676 -0.8593090772628784 255 255 255
7.651965141296387 0.3158216178417206 -1.6081839799880981 255 255 255
11.184749603271484 -8.536001205444336 0.6456759572029114 255 255 255
6.927806854248047 2.1224939823150635 -1.5365991592407227 255 255 255
14.654565811157227 6.984350204467773 -0.8019450306892395 255 255 255
4.764615058898926 1.9894745349884033 -1.296349287033081 255 255 255
9.639126777648926 -1.0735933780670166 -1.7098478078842163 255 255 255
13.083003044128418 0.38990285992622375 -0.756739616394043 255 255 255
16.79970359802246 -8.780529975891113 -1.0104790925979614 255 255 255
5.268110752105713 -3.2298684120178223 -0.8910388350486755 255 255 255
6.4086012840271 1.7070754766464233 -0.9390549063682556 255 255 255
21.624141693115234 1.3201258182525635 0.2753053307533264 255 255 255
13.452880859375 -6.979278087615967 0.4624040424823761 255 255 255
13.227059364318848 -0.7904821038246155 -1.5711537599563599 255 255 255
45.245914459228516 -5.208181381225586 0.40311577916145325 255 255 255
8.311834335327148 0.8305650353431702 -0.18133102357387543 255 255 255
20.99652099609375 1.2295324802398682 0.26786142587661743 255 255 255
7.704511642456055 -0.6542643904685974 -1.7264541387557983 255 255 255
12.090227127075195 -7.723999977111816 -0.7804675102233887 255 255 255
6.5992560386657715 4.874873638153076 -0.12426567077636719 255 255 255
9.562565803527832 -0.68721604347229 -1.6513313055038452 255 255 255
3.133965253829956 2.703799247741699 -0.19844591617584229 255 255 255
3.4343299865722656 2.351639986038208 -0.20657910406589508 255 255 255
3.3893234729766846 2.18611478805542 -0.7249000668525696 255 255 255
8.349723815917969 0.8804346919059753 -1.3966398239135742 255 255 255
19.413530349731445 -7.229261875152588 -0.8264268040657043 255 255 255
6.619731426239014 -0.7460379600524902 -1.6492542028427124 255 255 255
18.590909957885742 2.333620309829712 -0.23256340622901917 255 255 255
8.048656463623047 -2.3543505668640137 -1.7853330373764038 255 255 255
8.743987083435059 -0.9076758027076721 -1.625396966934204 255 255 255
3.4409825801849365 2.1807641983032227 -0.9064745903015137 255 255 255
4.144979476928711 1.9903299808502197 -0.9103150963783264 255 255 255
21.41963005065918 0.22848470509052277 0.4943576157093048 255 255 255
7.945052623748779 -2.7648630142211914 -1.7742384672164917 255 255 255
11.116011619567871 -8.309062004089355 0.318101167678833 255 255 255
7.970147132873535 1.1340175867080688 -1.5883805751800537 255 255 255
12.92973804473877 -7.809434413909912 -0.9255920052528381 255 255 255
6.627314567565918 -1.651561975479126 -1.7637300491333008 255 255 255
6.705808162689209 1.2339868545532227 -1.516416311264038 255 255 255
42.34669876098633 -1.9285101890563965 1.222374677658081 255 255 255
9.268942832946777 -6.771492004394531 -1.2929354906082153 255 255 255
6.315276622772217 1.8759028911590576 -0.9865045547485352 255 255 255
8.635720252990723 -1.6165918111801147 -1.7328927516937256 255 255 255
21.15615463256836 1.2821693420410156 0.17649759352207184 255 255 255
8.385074615478516 -1.262201189994812 -1.7263303995132446 255 255 255
7.853396892547607 0.7208120226860046 -1.6439043283462524 255 255 255
54.593231201171875 -15.394552230834961 -1.2195521593093872 255 255 255
9.230360984802246 4.407081127166748 0.3375871777534485 255 255 255
17.852224349975586 3.026926040649414 -0.018287736922502518 255 255 255
5.091409206390381 1.9267216920852661 -1.1427358388900757 255 255 255
11.700081825256348 -7.875694751739502 0.5281652212142944 255 255 255
7.349874973297119 0.7869861125946045 -0.716569721698761 255 255 255
26.688846588134766 -3.0498313903808594 -1.348584771156311 255 255 255
6.596266746520996 -0.49120068550109863 -1.6085370779037476 255 255 255
8.377087593078613 3.9723269939422607 -0.86556476354599 255 255 255
18.043521881103516 3.9834792613983154 0.16670331358909607 255 255 255
6.901893615722656 2.531611919403076 -0.7079663872718811 255 255 255
4.185250759124756 1.9864299297332764 -0.47361457347869873 255 255 255
21.832841873168945 -10.160606384277344 -1.2970143556594849 255 255 255
27.036293029785156 -5.378297328948975 -1.4417227506637573 255 255 255
32.175079345703125 -6.773550033569336 -1.3356224298477173 255 255 255
8.760214805603027 3.9461276531219482 -1.108879566192627 255 255 255
14.825715065002441 -8.73117446899414 -0.2982574701309204 255 255 255
17.40511131286621 3.5077085494995117 -0.07605612277984619 255 255 255
11.379109382629395 7.096863269805908 -0.8683491945266724 255 255 255
6.643869876861572 1.6138465404510498 -0.7513405680656433 255 255 255
7.804278373718262 -0.2073667198419571 -1.6387507915496826 255 255 255
30.05909538269043 -4.285048484802246 -1.3254525661468506 255 255 255
15.252516746520996 7.0873260498046875 -0.27934080362319946 255 255 255
8.509860038757324 0.2985512912273407 -1.5830156803131104 255 255 255
6.947019100189209 0.9497649669647217 -1.60348379611969 255 255 255
5.674683094024658 -3.229478359222412 -0.34664785861968994 255 255 255
28.54361343383789 -8.855734825134277 -1.6101787090301514 255 255 255
9.155044555664062 -2.792006254196167 -1.7939931154251099 255 255 255
17.47260093688965 3.0678510665893555 0.20412515103816986 255 255 255
8.263490676879883 1.152193546295166 -0.07006196677684784 255 255 255
11.462234497070312 -7.547683238983154 -0.6129810810089111 255 255 255
17.240413665771484 3.342512845993042 0.3644092381000519 255 255 255
8.27950668334961 -2.8989903926849365 -1.8075834512710571 255 255 255
4.98120641708374 1.8581327199935913 -1.2770508527755737 255 255 255
8.025209426879883 1.7526606321334839 -0.12366649508476257 255 255 255
5.921616554260254 5.184343338012695 0.2027735859155655 255 255 255
6.237833499908447 1.6552551984786987 -1.1027228832244873 255 255 255
16.64638900756836 -6.333207607269287 -1.7318612337112427 255 255 255
8.753055572509766 -1.555325984954834 -1.6491652727127075 255 255 255
3.7021360397338867 2.168133497238159 -0.8435294032096863 255 255 255
12.983470916748047 -0.42095422744750977 -0.8887553811073303 255 255 255
8.332379341125488 -1.1652823686599731 -1.7133700847625732 255 255 255
9.411848068237305 -6.843355655670166 -0.9618675112724304 255 255 255
18.855058670043945 -2.3767316341400146 -1.5420293807983398 255 255 255
5.3545451164245605 -3.0204949378967285 -1.3130589723587036 255 255 255
9.810827255249023 4.4674201011657715 -0.041295554488897324 255 255 255
9.649038314819336 -1.9602479934692383 -1.7870254516601562 255 255 255
9.196310997009277 -2.9538631439208984 -1.7156124114990234 255 255 255
5.6843791007995605 4.997128963470459 0.3981529772281647 255 255 255
10.344290733337402 0.42487722635269165 -1.5769298076629639 255 255 255
6.486532688140869 4.793264865875244 -0.09525875747203827 255 255 255
9.499313354492188 3.729543447494507 -1.0030012130737305 255 255 255
19.836078643798828 -6.742081642150879 -1.792257308959961 255 255 255
15.562613487243652 -5.572535991668701 -1.75497305393219 255 255 255
8.058516502380371 -0.8542103171348572 -1.6459463834762573 255 255 255
5.048689842224121 -3.712346315383911 -1.3019115924835205 255 255 255
11.279566764831543 -7.597344398498535 0.7079982757568359 255 255 255
12.392400741577148 -7.6649627685546875 -0.7540525794029236 255 255 255
29.171003341674805 -3.4219796657562256 -1.330751657485962 255 255 255
19.441667556762695 5.698238372802734 0.24996797740459442 255 255 255
18.286603927612305 6.2299699783325195 0.1921205371618271 255 255 255
4.795834064483643 1.9139912128448486 -0.9545692205429077 255 255 255
15.905982971191406 9.713418006896973 0.16588659584522247 255 255 255
17.59206771850586 2.7617297172546387 0.7510014176368713 255 255 255
3.467538833618164 2.388759136199951 -0.25699034333229065 255 255 255
8.451278686523438 -0.9952255487442017 -1.6334275007247925 255 255 255
19.591312408447266 -7.458078384399414 -0.35436129570007324 255 255 255
4.6087751388549805 1.8571043014526367 -1.041439414024353 255 255 255
25.07119369506836 -11.037285804748535 -1.715499997138977 255 255 255
5.320875644683838 -3.440948724746704 -0.7046573758125305 255 255 255
6.873066425323486 1.1237804889678955 -0.8202551007270813 255 255 255
15.156525611877441 7.3441853523254395 -0.3563387095928192 255 255 255
10.434436798095703 -0.28423458337783813 -1.6545875072479248 255 255 255
14.16436767578125 0.3966507911682129 -1.4179826974868774 255 255 255
5.1246466636657715 -3.5980875492095947 -1.0383052825927734 255 255 255
13.822122573852539 -7.965366363525391 -0.7780542373657227 255 255 255
9.588059425354004 -3.0072154998779297 -1.7534536123275757 255 255 255
7.823280334472656 -3.125051498413086 -1.784601092338562 255 255 255
14.700350761413574 -2.1002511978149414 -1.7056474685668945 255 255 255
18.241159439086914 -7.551816463470459 -1.679927945137024 255 255 255
4.041304111480713 2.142505645751953 -0.9835007190704346 255 255 255
9.198509216308594 -1.3007005453109741 -1.7229803800582886 255 255 255
16.58599281311035 -1.3506989479064941 -1.5047162771224976 255 255 255
16.066883087158203 9.807162284851074 0.322212815284729 255 255 255
6.602003574371338 1.1756216287612915 -1.0527989864349365 255 255 255
7.180227756500244 -0.25501006841659546 -1.6469334363937378 255 255 255
9.920024871826172 4.599399566650391 -0.13347679376602173 255 255 255
3.2366440296173096 2.7441000938415527 -0.0843072161078453 255 255 255
6.637580394744873 4.614449501037598 0.4983954429626465 255 255 255
6.7064619064331055 1.4912973642349243 -0.6976231932640076 255 255 255
6.676783084869385 1.162147879600525 -1.528682827949524 255 255 255
7.125232696533203 1.1647802591323853 -1.272196650505066 255 255 255
5.715267658233643 5.074938774108887 0.1198577880859375 255 255 255
12.27155876159668 0.25095948576927185 -1.6232103109359741 255 255 255
28.346385955810547 -12.326325416564941 -0.7660521864891052 255 255 255
17.528465270996094 -6.398557186126709 -1.7999340295791626 255 255 255
13.994786262512207 -7.857210636138916 0.3963497579097748 255 255 255
9.422444343566895 3.805551528930664 -0.294806569814682 255 255 255
18.7980899810791 5.962671279907227 -0.39253997802734375 255 255 255
18.363828659057617 2.2152600288391113 -0.17675699293613434 255 255 255
21.1311092376709 -9.196102142333984 0.5182845592498779 255 255 255
13.129260063171387 0.07384411990642548 -0.6833712458610535 255 255 255
18.09686279296875 6.158793926239014 -0.7169489860534668 255 255 255
11.61689281463623 6.039153099060059 -0.9052100777626038 255 255 255
6.529283046722412 4.73933219909668 0.3168015480041504 255 255 255
8.039069175720215 -2.300126075744629 -1.7230706214904785 255 255 255
54.49452590942383 -4.617799282073975 1.6825799942016602 255 255 255
13.186827659606934 0.44650620222091675 -0.8408052325248718 255 255 255
7.478923320770264 1.0151137113571167 -1.2653194665908813 255 255 255
9.980441093444824 -1.6668742895126343 -1.6576128005981445 255 255 255
7.3021416664123535 -2.9774045944213867 -1.732426404953003 255 255 255
5.331583023071289 -2.915621042251587 -0.9987766146659851 255 255 255
19.701112747192383 -9.58507251739502 -1.3387203216552734 255 255 255
9.159996032714844 -0.8962720036506653 -1.5917969942092896 255 255 255
19.338478088378906 -7.447075366973877 -1.3512108325958252 255 255 255
15.998737335205078 9.676807403564453 0.15481989085674286 255 255 255
8.283132553100586 4.097664833068848 -0.25185325741767883 255 255 255
14.756962776184082 -4.1898088455200195 -1.6708906888961792 255 255 255
21.002256393432617 -8.229702949523926 -1.7151004076004028 255 255 255
9.21446704864502 5.310868263244629 0.5769094228744507 255 255 255
41.19905090332031 -15.846475601196289 0.16099736094474792 255 255 255
38.10186767578125 -0.6648110747337341 0.6167588233947754 255 255 255
54.746402740478516 -4.584936618804932 1.5177537202835083 255 255 255
9.665486335754395 -1.239378571510315 -1.7057689428329468 255 255 255
52.93784713745117 -19.716590881347656 0.3241380751132965 255 255 255
4.72685432434082 1.9324500560760498 -1.038339614868164 255 255 255
15.542170524597168 -4.876272201538086 -1.7932125329971313 255 255 255
17.879690170288086 2.5015571117401123 0.42609357833862305 255 255 255
7.1755876541137695 -3.1463263034820557 -1.7602459192276 255 255 255
3.4567344188690186 2.3048226833343506 -0.8827041983604431 255 255 255
14.57621955871582 -8.61203384399414 -0.13814228773117065 255 255 255
13.024308204650879 -0.13072921335697174 -0.8428128361701965 255 255 255
6.159971714019775 -3.7964909076690674 -0.8015257716178894 255 255 255
17.456710815429688 6.447741985321045 -0.6730498671531677 255 255 255
8.640739440917969 -0.552010178565979 -1.735576868057251 255 255 255
11.039031982421875 -7.195313930511475 0.2045227289199829 255 255 255
9.076727867126465 4.073057651519775 0.3811912536621094 255 255 255
21.553787231445312 -4.791805267333984 -1.6058261394500732 255 255 255
41.36234664916992 -15.795770645141602 -0.16028501093387604 255 255 255
11.1696195602417 -3.145915985107422 -1.6583361625671387 255 255 255
5.221752166748047 -3.6377530097961426 -0.9849463701248169 255 255 255
14.617472648620605 -1.8812148571014404 -1.5926308631896973 255 255 255
8.303691864013672 -0.3240448236465454 -1.7034939527511597 255 255 255
10.98989200592041 -0.5156916379928589 -1.6921002864837646 255 255 255
4.089507579803467 2.0905544757843018 -0.861537754535675 255 255 255
5.959812641143799 -2.6119637489318848 -1.507889986038208 255 255 255
6.867188930511475 4.638803958892822 0.257079541683197 255 255 255
10.024972915649414 4.3567795753479 -0.2191987782716751 255 255 255
19.252107620239258 -7.892636299133301 -0.832023561000824 255 255 255
13.183096885681152 0.0028538149781525135 -1.5898313522338867 255 255 255
7.660120010375977 -1.9239532947540283 -1.7535122632980347 255 255 255
35.47821044921875 -7.474238872528076 -1.335444450378418 255 255 255
27.211647033691406 -3.4939498901367188 -1.341591715812683 255 255 255
9.502058029174805 0.4925682842731476 -0.42814889550209045 255 255 255
9.914325714111328 4.326866149902344 -0.29281336069107056 255 255 255
19.416397094726562 -7.412107467651367 -1.0544941425323486 255 255 255
3.090797185897827 2.7664670944213867 -0.20485006272792816 255 255 255
6.118320941925049 0.9907093644142151 -1.6625839471817017 255 255 255
10.153142929077148 3.9182817935943604 0.36065301299095154 255 255 255
12.173333168029785 8.004842758178711 -0.7717425227165222 255 255 255
23.319597244262695 -2.6503145694732666 -1.3960232734680176 255 255 255
4.9130659103393555 1.824695348739624 -1.2961558103561401 255 255 255
6.844317436218262 2.680238962173462 -0.7931126952171326 255 255 255
6.565371513366699 1.6073166131973267 -0.8449234962463379 255 255 255
15.448385238647461 7.735706329345703 0.5413284301757812 255 255 255
10.415093421936035 -0.2134004384279251 -1.5592784881591797 255 255 255
9.766281127929688 3.7916204929351807 -0.5754838585853577 255 255 255
17.828426361083984 2.690594434738159 0.5019291043281555 255 255 255
16.161399841308594 -3.05290150642395 -1.6287562847137451 255 255 255
12.18166446685791 -7.533348560333252 0.5422912240028381 255 255 255
19.607837677001953 -9.443881034851074 0.09297974407672882 255 255 255
7.0860395431518555 1.5475540161132812 -1.593183994293213 255 255 255
21.406644821166992 -9.68496036529541 0.8613870143890381 255 255 255
19.36834716796875 -7.466613292694092 -1.0775744915008545 255 255 255
18.769664764404297 5.95229434967041 0.09501263499259949 255 255 255
13.214097023010254 4.9251484870910645 -0.8457399606704712 255 255 255
6.565044403076172 -2.005984306335449 -1.739933967590332 255 255 255
8.84695816040039 3.995971918106079 -0.7866877913475037 255 255 255
18.601158142089844 2.0716781616210938 0.2966063320636749 255 255 255
18.50243377685547 6.0522565841674805 -0.14824095368385315 255 255 255
6.135823726654053 5.188847064971924 0.20019115507602692 255 255 255
13.981954574584961 6.309902191162109 -0.7675865888595581 255 255 255
18.68172836303711 -2.0614867210388184 -1.4522525072097778 255 255 255
17.470308303833008 3.162137269973755 -0.29951199889183044 255 255 255
12.807337760925293 7.704526424407959 -0.49182143807411194 255 255 255
20.227903366088867 5.66734504699707 -0.2544534206390381 255 255 255
11.059137344360352 -2.0337934494018555 -1.6783877611160278 255 255 255
12.940862655639648 8.305299758911133 -0.5880576372146606 255 255 255
14.107816696166992 -0.8854472637176514 -1.349707841873169 255 255 255
5.269753456115723 -3.0512447357177734 -1.2965370416641235 255 255 255
5.289439678192139 -3.4792768955230713 -1.0891499519348145 255 255 255
7.542854309082031 -0.4180113673210144 -1.6540367603302002 255 255 255
3.464548110961914 2.187936782836914 -0.6230893731117249 255 255 255
8.593022346496582 -2.9485394954681396 -1.6347682476043701 255 255 255
11.45599365234375 -7.957111358642578 0.41136643290519714 255 255 255
9.589147567749023 -6.9164958000183105 -1.12478768825531 255 255 255
6.797929286956787 1.4540331363677979 -0.6651120185852051 255 255 255
5.433371067047119 -2.682211399078369 -1.2084555625915527 255 255 255
7.823765754699707 -1.079662799835205 -1.659474492073059 255 255 255
10.869300842285156 -8.033824920654297 -0.1867816299200058 255 255 255
5.591419696807861 -3.500148057937622 -0.33096936345100403 255 255 255
13.150045394897461 5.966512203216553 -0.7346729636192322 255 255 255
29.103361129760742 -12.139968872070312 -1.0273147821426392 255 255 255
2.9598190784454346 2.4515743255615234 -0.7590423226356506 255 255 255
12.138693809509277 -3.2787697315216064 -1.7168914079666138 255 255 255
21.059267044067383 0.9827920198440552 -0.19317437708377838 255 255 255
10.359334945678711 -7.233377933502197 -0.5428016781806946 255 255 255
34.30171585083008 -13.738141059875488 -0.23754623532295227 255 255 255
14.712569236755371 -2.104790687561035 -1.5808079242706299 255 255 255
3.360713243484497 2.1814424991607666 -0.7397103309631348 255 255 255
13.208342552185059 0.4565044045448303 -0.597458004951477 255 255 255
11.128955841064453 -7.189241409301758 0.11730650067329407 255 255 255
21.274696350097656 0.5741536021232605 0.5290558338165283 255 255 255
7.489495754241943 -1.890844464302063 -1.629549503326416 255 255 255
7.478325366973877 0.9763163328170776 -1.4360533952713013 255 255 255
3.2419872283935547 2.4908998012542725 -0.2916193902492523 255 255 255
13.025142669677734 -7.39845609664917 0.44175976514816284 255 255 255
21.898771286010742 -10.430368423461914 -0.7149167060852051 255 255 255
7.1315789222717285 1.122988224029541 -0.7533900737762451 255 255 255
11.588589668273926 -7.243759632110596 -0.18900221586227417 255 255 255
8.59400749206543 -1.564307451248169 -1.6058416366577148 255 255 255
4.0723395347595215 2.057584047317505 -0.8589613437652588 255 255 255
12.303914070129395 0.5953318476676941 -1.5568028688430786 255 255 255
3.0296058654785156 2.472003936767578 -0.2384597510099411 255 255 255
35.452938079833984 -7.142848491668701 -1.3867785930633545 255 255 255
5.184567451477051 -3.8087985515594482 -1.0514904260635376 255 255 255
6.898448467254639 -0.6895127296447754 -1.7315648794174194 255 255 255
13.076435089111328 -0.07080148160457611 -0.8152742385864258 255 255 255
3.6455907821655273 2.3568029403686523 -0.23124608397483826 255 255 255
12.538978576660156 -7.851274490356445 0.5518977046012878 255 255 255
7.347232341766357 0.7902334928512573 -0.702556312084198 255 255 255
7.687802791595459 -2.525070905685425 -1.749743103981018 255 255 255
18.024431228637695 3.9624648094177246 0.22675997018814087 255 255 255
24.073951721191406 -6.991853713989258 -1.6957591772079468 255 255 255
48.42344665527344 -14.566509246826172 -1.3792644739151 255 255 255
20.830408096313477 -9.645572662353516 0.8090548515319824 255 255 255
9.223265647888184 3.813483238220215 -0.5216712355613708 255 255 255
12.450075149536133 8.11019515991211 -0.6375990509986877 255 255 255
20.96799659729004 1.2434192895889282 0.1976112723350525 255 255 255
4.266844272613525 1.940688133239746 -1.0330743789672852 255 255 255
45.25196075439453 -2.800825357437134 1.7582459449768066 255 255 255
13.096406936645508 0.14726437628269196 -0.7670203447341919 255 255 255
24.654266357421875 -5.447853088378906 -1.4744091033935547 255 255 255
10.23588752746582 5.85767126083374 -0.6356958746910095 255 255 255
6.908732891082764 2.6486306190490723 -0.7879234552383423 255 255 255
5.329682350158691 -3.392835855484009 -0.5048646330833435 255 255 255
15.051826477050781 3.9180119037628174 0.3779197931289673 255 255 255
20.616973876953125 -9.428366661071777 0.6446854472160339 255 255 255
3.66886830329895 2.290968179702759 -0.2504909932613373 255 255 255
6.358729362487793 1.8621068000793457 -1.3200901746749878 255 255 255
6.639407634735107 4.8244242668151855 -0.16663916409015656 255 255 255
9.987107276916504 -3.47601318359375 -1.8552170991897583 255 255 255
10.099390029907227 3.92604923248291 0.3062337338924408 255 255 255
3.583266019821167 2.4762024879455566 -0.11092697829008102 255 255 255
6.684224605560303 1.6714481115341187 -0.7155308723449707 255 255 255
41.17599105834961 -15.63840103149414 0.06257481873035431 255 255 255
12.278412818908691 8.420205116271973 -0.6113706231117249 255 255 255
6.6366190910339355 4.649839401245117 0.19244547188282013 255 255 255
21.691852569580078 -5.127293586730957 -1.6137603521347046 255 255 255
3.3900091648101807 2.461622953414917 -0.5974992513656616 255 255 255
8.426907539367676 -1.338465929031372 -1.7124359607696533 255 255 255
20.43915367126465 -5.320377826690674 -1.707349419593811 255 255 255
13.052190780639648 -4.763915061950684 -1.6651254892349243 255 255 255
7.562025547027588 0.8179097771644592 -1.6176387071609497 255 255 255
6.4868245124816895 5.515396595001221 -0.24432070553302765 255 255 255
5.1737799644470215 -3.386237621307373 -1.192494511604309 255 255 255
7.442611217498779 -1.7442734241485596 -1.7690330743789673 255 255 255
18.84375762939453 2.297942638397217 0.5638694763183594 255 255 255
8.97750473022461 3.954211950302124 -0.6560407876968384 255 255 255
4.938747882843018 1.9915400743484497 -1.1647120714187622 255 255 255
6.014247894287109 5.135334014892578 0.30554497241973877 255 255 255
12.499404907226562 -7.863997459411621 -0.6423284411430359 255 255 255
4.279780387878418 1.9604949951171875 -1.0793848037719727 255 255 255
12.38762092590332 -0.6370901465415955 -1.6527721881866455 255 255 255
12.012149810791016 -3.473362922668457 -1.7414343357086182 255 255 255
6.100412845611572 4.879995822906494 0.18659904599189758 255 255 255
6.625993728637695 -1.7114033699035645 -1.641290545463562 255 255 255
8.909812927246094 3.9748528003692627 -0.36221936345100403 255 255 255
10.062979698181152 -1.9985146522521973 -1.5973365306854248 255 255 255
21.03160285949707 -9.010518074035645 -1.6715773344039917 255 255 255
6.066866874694824 5.199316024780273 0.43230539560317993 255 255 255
3.7947099208831787 2.1147165298461914 -0.8873063325881958 255 255 255
12.736288070678711 -0.4710777699947357 -1.601973056793213 255 255 255
9.309264183044434 3.795358657836914 -0.23553654551506042 255 255 255
7.211369514465332 -0.6743456125259399 -1.6993963718414307 255 255 255
14.546263694763184 -0.07934034615755081 -0.2340044230222702 255 255 255
18.27311134338379 6.128791809082031 0.1428852677345276 255 255 255
12.97059154510498 5.123622417449951 -0.5866690278053284 255 255 255
6.292418003082275 2.034770965576172 -1.6597509384155273 255 255 255
6.305460453033447 2.173637866973877 -1.0025320053100586 255 255 255
8.505544662475586 1.837752103805542 -0.6888189315795898 255 255 255
4.790995121002197 1.8691867589950562 -1.2302294969558716 255 255 255
13.304282188415527 -0.5794131755828857 -0.5922426581382751 255 255 255
8.341565132141113 -0.2218737006187439 -1.651294231414795 255 255 255
7.153900623321533 1.997802495956421 -1.5343332290649414 255 255 255
6.317904472351074 0.12280063331127167 -1.6014342308044434 255 255 255
3.7007923126220703 2.2561049461364746 -0.8007635474205017 255 255 255
24.350679397583008 -3.9596080780029297 -1.5354413986206055 255 255 255
6.766307830810547 1.2092640399932861 -1.2722241878509521 255 255 255
6.5164794921875 1.7470695972442627 -0.8177939057350159 255 255 255
6.468850135803223 1.906394600868225 -0.818220853805542 255 255 255
54.687599182128906 -4.733572959899902 1.4943445920944214 255 255 255
9.699069023132324 -1.5289849042892456 -1.7105646133422852 255 255 255
6.354254722595215 1.413872241973877 -1.1218197345733643 255 255 255
11.910380363464355 -0.4887593686580658 -1.6174463033676147 255 255 255
4.246269702911377 1.9859158992767334 -0.5797513127326965 255 255 255
6.845638275146484 -0.5249531269073486 -1.717400312423706 255 255 255
14.972024917602539 -0.5402277112007141 -1.616703987121582 255 255 255
15.334239959716797 7.756500720977783 -0.7288239598274231 255 255 255
19.88871955871582 -7.054845333099365 -1.6490939855575562 255 255 255
20.157732009887695 0.6200231313705444 -0.2661379277706146 255 255 255
56.76411819458008 -17.69059181213379 -1.308899164199829 255 255 255
11.84040355682373 -7.620601177215576 0.3754437267780304 255 255 255
14.862733840942383 -1.1430927515029907 -1.2277629375457764 255 255 255
10.536519050598145 6.954457759857178 0.38365694880485535 255 255 255
19.37572479248047 -7.35255241394043 -1.220790982246399 255 255 255
7.608060836791992 -0.5143915414810181 -1.7184189558029175 255 255 255
25.261869430541992 -6.825723648071289 -1.5550537109375 255 255 255
7.232769012451172 1.1522326469421387 -0.6925972700119019 255 255 255
10.615545272827148 -7.3312578201293945 -0.5097906589508057 255 255 255
11.515633583068848 -7.451321125030518 0.616283118724823 255 255 255
20.367101669311523 -9.299813270568848 0.7621769905090332 255 255 255
3.86386775970459 2.1054441928863525 -0.8868760466575623 255 255 255
17.81434440612793 3.7168662548065186 0.13585413992404938 255 255 255
7.510514736175537 0.8573551774024963 -0.7861538529396057 255 255 255
25.002077102661133 -10.953405380249023 -1.5285656452178955 255 255 255
3.2942004203796387 2.2735018730163574 -0.5240545272827148 255 255 255
9.418980598449707 -7.135543346405029 -0.7353484034538269 255 255 255
12.947283744812012 -0.24094900488853455 -0.6758692860603333 255 255 255
12.016010284423828 -8.843703269958496 0.7323764562606812 255 255 255
9.387650489807129 5.612295627593994 0.3974573314189911 255 255 255
21.420656204223633 1.5149279832839966 -0.1427750140428543 255 255 255
19.15329360961914 -9.697192192077637 -0.5511035323143005 255 255 255
6.424248218536377 1.7030041217803955 -1.5510191917419434 255 255 255
6.960029125213623 -2.858248472213745 -1.6359323263168335 255 255 255
7.43729305267334 0.7531205415725708 -0.7659451365470886 255 255 255
5.360525131225586 -2.966548204421997 -1.2290185689926147 255 255 255
6.256956100463867 2.0722837448120117 -1.6346580982208252 255 255 255
10.917348861694336 -0.38969114422798157 -1.5248911380767822 255 255 255
13.532113075256348 -0.8451218605041504 -1.1115789413452148 255 255 255
7.044550895690918 1.7919505834579468 -1.5510838031768799 255 255 255
12.461284637451172 -7.263755798339844 -0.0015016221441328526 255 255 255
4.460967063903809 1.9458284378051758 -1.0099444389343262 255 255 255
12.388919830322266 7.937955379486084 -0.6690273284912109 255 255 255
12.912346839904785 -1.9857745170593262 -1.6203995943069458 255 255 255
9.918732643127441 4.012453079223633 0.4573360085487366 255 255 255
14.024649620056152 -0.6412596106529236 -0.22534990310668945 255 255 255
15.214566230773926 7.396486282348633 -0.5881347060203552 255 255 255
12.930256843566895 -5.032930850982666 -1.7689645290374756 255 255 255
9.007298469543457 0.5620060563087463 -0.9866695404052734 255 255 255
8.404511451721191 3.9209370613098145 -0.8933490514755249 255 255 255
54.54775619506836 -6.956403732299805 0.6300728917121887 255 255 255
6.507176876068115 2.257152795791626 -0.8230078220367432 255 255 255
18.103574752807617 2.548473834991455 0.2841237783432007 255 255 255
8.000066757202148 1.8514872789382935 -0.06819076091051102 255 255 255
8.948846817016602 -6.632543087005615 -1.1789788007736206 255 255 255
21.409513473510742 1.4746371507644653 0.8958844542503357 255 255 255
5.153610706329346 -3.571821451187134 -0.993510365486145 255 255 255
8.93664836883545 0.5913357138633728 -0.9454266428947449 255 255 255
12.818131446838379 5.167321681976318 -0.8536632061004639 255 255 255
9.066125869750977 3.9189252853393555 0.5936508774757385 255 255 255
15.621149063110352 -5.594081401824951 -1.7040064334869385 255 255 255
13.511170387268066 -2.695176601409912 -1.7088432312011719 255 255 255
9.076691627502441 4.153536796569824 0.40537315607070923 255 255 255
6.086524963378906 4.772266387939453 0.12658484280109406 255 255 255
5.453017711639404 -2.687525987625122 -0.90641850233078 255 255 255
5.367021083831787 -2.988764524459839 -1.0151230096817017 255 255 255
2.9858577251434326 2.3324320316314697 -0.8863657116889954 255 255 255
12.768603324890137 0.5218806266784668 -1.4684523344039917 255 255 255
10.568981170654297 -7.772770404815674 -0.3627549707889557 255 255 255
6.226454734802246 1.766209363937378 -1.5275282859802246 255 255 255
24.76519012451172 -9.941170692443848 0.5740134119987488 255 255 255
18.515005111694336 -6.29591703414917 -1.7146220207214355 255 255 255
24.96876335144043 -6.181769847869873 -1.5026335716247559 255 255 255
6.484796524047852 1.580330491065979 -0.7260619401931763 255 255 255
4.240538120269775 1.9029558897018433 -0.6548757553100586 255 255 255
16.996341705322266 -8.78731632232666 -0.29368963837623596 255 255 255
7.090183258056641 1.0338985919952393 -0.7633082866668701 255 255 255
5.4055891036987305 -2.747196674346924 -1.0265525579452515 255 255 255
75.4381332397461 -14.84057903289795 1.3761447668075562 255 255 255
8.822734832763672 0.5871732831001282 -0.7079706788063049 255 255 255
6.596226692199707 -1.5421515703201294 -1.7195830345153809 255 255 255
31.806718826293945 -5.100481986999512 -0.8334037661552429 255 255 255
9.150528907775879 -6.705455303192139 -0.9258509874343872 255 255 255
8.37952709197998 -1.2473647594451904 -1.6436786651611328 255 255 255
7.67909574508667 -0.22789987921714783 -1.6684099435806274 255 255 255
6.428599834442139 2.0096187591552734 -0.9202855825424194 255 255 255
3.636139392852783 2.324908494949341 -0.192805215716362 255 255 255
13.218027114868164 0.4423075318336487 -0.7289093136787415 255 255 255
38.69486999511719 -4.746407985687256 -1.000444769859314 255 255 255
11.299107551574707 -7.446243762969971 -0.23091234266757965 255 255 255
3.787480592727661 2.1409358978271484 -0.9734874963760376 255 255 255
17.75796127319336 6.232623100280762 0.5227149128913879 255 255 255
19.09770393371582 -3.4060235023498535 -1.6168570518493652 255 255 255
13.413372993469238 8.934785842895508 -0.42602401971817017 255 255 255
12.606861114501953 -3.4550554752349854 -1.7273448705673218 255 255 255
17.864286422729492 6.307000637054443 -0.6375589966773987 255 255 255
21.146608352661133 1.1075890064239502 0.04310343787074089 255 255 255
29.120872497558594 -5.342064380645752 -1.45540452003479 255 255 255
17.847816467285156 6.168496131896973 -0.5494628548622131 255 255 255
6.994968891143799 1.9916785955429077 -1.6544008255004883 255 255 255
6.723006248474121 1.1147595643997192 -0.9627784490585327 255 255 255
35.303955078125 -6.975245475769043 -1.3360944986343384 255 255 255
23.805517196655273 -10.791546821594238 -1.3471591472625732 255 255 255
3.420980453491211 2.276867628097534 -0.20155692100524902 255 255 255
4.542818546295166 1.9399176836013794 -0.7855787873268127 255 255 255
6.919121265411377 -3.078364610671997 -1.8719109296798706 255 255 255
19.528976440429688 -6.903424263000488 -0.9416001439094543 255 255 255
13.019195556640625 -0.13787153363227844 -1.0763342380523682 255 255 255
15.85211181640625 -7.887374401092529 0.4203086495399475 255 255 255
13.637157440185547 -3.1903607845306396 -1.6679702997207642 255 255 255
6.859591007232666 1.0864282846450806 -0.9412060379981995 255 255 255
21.81241226196289 0.6062083840370178 0.3030046224594116 255 255 255
62.52846145629883 -21.6992244720459 1.220578908920288 255 255 255
7.779047966003418 -0.568840503692627 -1.6550871133804321 255 255 255
20.947328567504883 -8.268522262573242 -1.7284094095230103 255 255 255
8.976195335388184 3.99605131149292 -0.28151240944862366 255 255 255
18.498384475708008 -6.7147698402404785 -1.7384395599365234 255 255 255
8.937185287475586 4.002628326416016 -0.6139857172966003 255 255 255
19.61159896850586 -7.76960563659668 -1.7109524011611938 255 255 255
3.61997127532959 2.252016544342041 -0.34090936183929443 255 255 255
3.273042678833008 2.2523114681243896 -0.5516383647918701 255 255 255
18.598756790161133 2.2004475593566895 -0.2761443853378296 255 255 255
9.433122634887695 0.35348960757255554 -1.619994044303894 255 255 255
12.572354316711426 -4.6154279708862305 -1.7900274991989136 255 255 255
9.539558410644531 4.084275245666504 0.5453103184700012 255 255 255
6.227035999298096 1.5710750818252563 -1.2720004320144653 255 255 255
7.24905252456665 1.0642868280410767 -0.9044327139854431 255 255 255
11.148641586303711 -7.929379463195801 0.009423320181667805 255 255 255
5.325892925262451 -2.9776077270507812 -1.1636000871658325 255 255 255
12.945355415344238 -4.953480243682861 -1.7736575603485107 255 255 255
14.980194091796875 -0.6169112324714661 -1.6302692890167236 255 255 255
5.386552810668945 -2.8197989463806152 -1.3236331939697266 255 255 255
12.985109329223633 5.082942485809326 -0.8676766157150269 255 255 255
7.68501091003418 0.9500470161437988 -0.2816088795661926 255 255 255
6.177263259887695 4.910012722015381 -0.29263684153556824 255 255 255
9.035924911499023 4.511101722717285 0.5148653388023376 255 255 255
8.0071382522583 0.67970871925354 -0.827292799949646 255 255 255
8.627381324768066 1.6939005851745605 -0.5496225357055664 255 255 255
7.90128755569458 -5.953619003295898 -1.7700235843658447 255 255 255
27.562265396118164 -7.139039516448975 -1.5530847311019897 255 255 255
19.59980010986328 5.7665605545043945 -0.172428160905838 255 255 255
9.017607688903809 4.861783027648926 0.5265026092529297 255 255 255
10.432928085327148 6.8743462562561035 0.48269620537757874 255 255 255
5.116808891296387 -3.423679828643799 -1.296845555305481 255 255 255
7.179659843444824 -0.7314813137054443 -1.6575169563293457 255 255 255
10.413894653320312 -6.897751808166504 0.42735686898231506 255 255 255
3.2553460597991943 2.4102022647857666 -0.1282491385936737 255 255 255
14.212581634521484 -0.9661825299263 -1.1796565055847168 255 255 255
14.19260025024414 -6.858550548553467 0.781067430973053 255 255 255
5.222610950469971 1.7897804975509644 -1.2559618949890137 255 255 255
10.486224174499512 -7.288012981414795 -0.6091479659080505 255 255 255
3.9235570430755615 2.096827507019043 -1.0131279230117798 255 255 255
19.927265167236328 5.580179214477539 0.924197793006897 255 255 255
17.214935302734375 3.2059333324432373 0.12433025240898132 255 255 255
54.893558502197266 -3.730956792831421 1.382352352142334 255 255 255
12.068589210510254 7.484455585479736 -0.8704240918159485 255 255 255
9.221293449401855 -6.983603477478027 -0.45800280570983887 255 255 255
33.968223571777344 -3.4585394859313965 -0.6895470023155212 255 255 255
6.783598899841309 1.1531212329864502 -0.8420050144195557 255 255 255
18.906394958496094 5.958349704742432 0.6539875268936157 255 255 255
6.494464874267578 1.6056993007659912 -0.7714342474937439 255 255 255
19.367643356323242 -7.703854560852051 -1.008293867111206 255 255 255
3.311429500579834 2.6246423721313477 -0.10796087980270386 255 255 255
7.578339576721191 0.5751063227653503 -1.744763970375061 255 255 255
16.35072898864746 5.561586856842041 -0.7130185961723328 255 255 255
17.90631103515625 6.208949565887451 0.363199383020401 255 255 255
16.72635269165039 -6.528813362121582 -1.8087522983551025 255 255 255
6.43561315536499 4.77195405960083 0.33265379071235657 255 255 255
4.0462260246276855 2.158428192138672 -0.32621338963508606 255 255 255
6.213023662567139 4.878026008605957 0.4660097062587738 255 255 255
6.72015905380249 1.498857855796814 -0.6772611141204834 255 255 255
11.9187593460083 -0.2563473880290985 -1.6144511699676514 255 255 255
4.797387599945068 1.9074987173080444 -1.1991345882415771 255 255 255
11.099320411682129 -7.267172813415527 0.1553981453180313 255 255 255
8.220544815063477 1.3731648921966553 -0.1559952050447464 255 255 255
2.9924519062042236 2.3055150508880615 -0.7712566256523132 255 255 255
3.1992440223693848 2.3496365547180176 -0.6130598783493042 255 255 255
17.574628829956055 -6.471441268920898 -1.7252793312072754 255 255 255
19.20558738708496 -4.366003513336182 -1.6514438390731812 255 255 255
8.312811851501465 0.08415888994932175 -1.6742467880249023 255 255 255
18.247093200683594 2.6304173469543457 -0.13874733448028564 255 255 255
6.508074760437012 1.4342297315597534 -1.491443395614624 255 255 255
40.229373931884766 -16.976163864135742 0.2550571858882904 255 255 255
19.328195571899414 -7.679118633270264 -0.6673187017440796 255 255 255
7.67712926864624 0.9012424349784851 -0.9072572588920593 255 255 255
3.5466396808624268 2.3416504859924316 -0.8377891182899475 255 255 255
21.085865020751953 2.0629961490631104 0.7700716853141785 255 255 255
8.347074508666992 0.6708772778511047 -1.0761711597442627 255 255 255
13.028545379638672 -0.3130420744419098 -0.59324049949646 255 255 255
10.193957328796387 4.464153289794922 0.3813919723033905 255 255 255
3.8118865489959717 2.0605592727661133 -1.0785762071609497 255 255 255
23.064964294433594 -4.207775592803955 -1.5268850326538086 255 255 255
11.092000961303711 -7.897129535675049 0.10845764726400375 255 255 255
17.071678161621094 -7.144353866577148 -1.7026889324188232 255 255 255
7.360558032989502 0.688793420791626 -1.5989868640899658 255 255 255
15.306958198547363 -6.463803291320801 -1.7610586881637573 255 255 255
14.496103286743164 -1.4061967134475708 -1.5862144231796265 255 255 255
6.672236442565918 1.2998249530792236 -0.7198872566223145 255 255 255
17.289884567260742 3.371126174926758 0.14339806139469147 255 255 255
7.69545841217041 -2.60115122795105 -1.7539547681808472 255 255 255
10.552719116210938 -1.9890234470367432 -1.655287265777588 255 255 255
17.08709144592285 3.4252710342407227 0.4683387875556946 255 255 255
5.129283905029297 -3.240175247192383 -1.32569420337677 255 255 255
9.965424537658691 4.821491718292236 0.19903317093849182 255 255 255
7.167182445526123 -0.7673779129981995 -1.6472400426864624 255 255 255
6.289092540740967 1.2700387239456177 -1.6316347122192383 255 255 255
10.925132751464844 -7.452305793762207 0.06440263986587524 255 255 255
6.628673076629639 1.2729227542877197 -1.1738425493240356 255 255 255
9.76046371459961 4.102142333984375 0.24217896163463593 255 255 255
23.98233413696289 -10.81897258758545 -1.1290405988693237 255 255 255
13.004329681396484 -0.7302305698394775 -1.1485235691070557 255 255 255
8.94753646850586 4.317457675933838 0.4212706387042999 255 255 255
5.262767791748047 -3.0187714099884033 -1.3018251657485962 255 255 255
4.578216075897217 1.8989390134811401 -0.8026096820831299 255 255 255
7.646058559417725 0.4244091510772705 -1.739997386932373 255 255 255
9.860637664794922 6.120475769042969 0.2465720772743225 255 255 255
9.549951553344727 5.783174514770508 0.34795305132865906 255 255 255
4.004112720489502 2.1695923805236816 -0.8120207786560059 255 255 255
19.745285034179688 -7.735387802124023 -1.737755298614502 255 255 255
40.82333755493164 -15.860648155212402 -0.19593024253845215 255 255 255
34.03377151489258 -3.512662410736084 -1.108028531074524 255 255 255
11.968278884887695 -4.460824012756348 -1.759257435798645 255 255 255
6.7216362953186035 2.490335702896118 -0.7978020310401917 255 255 255
5.476787567138672 -2.709949493408203 -1.1690198183059692 255 255 255
7.417966842651367 1.0269609689712524 -1.6053833961486816 255 255 255
6.628507614135742 -1.9641005992889404 -1.7784746885299683 255 255 255
11.635661125183105 -7.5954790115356445 -0.7317324280738831 255 255 255
6.227626800537109 5.1815948486328125 0.5197598338127136 255 255 255
8.014384269714355 -2.6610283851623535 -1.709824800491333 255 255 255
12.966676712036133 -1.8123884201049805 -1.6387929916381836 255 255 255
19.532421112060547 -6.614540100097656 -0.8475254774093628 255 255 255
15.423574447631836 3.5471293926239014 -0.027350813150405884 255 255 255
17.98856544494629 -3.906766176223755 -1.7032376527786255 255 255 255
10.56706428527832 6.768279075622559 0.5076144933700562 255 255 255
14.3832368850708 -8.69340705871582 -0.12198098748922348 255 255 255
13.48057746887207 -1.9438080787658691 -1.7177613973617554 255 255 255
5.2322893142700195 -2.7452142238616943 -1.4264342784881592 255 255 255
4.342182159423828 2.5911529064178467 -0.721061110496521 255 255 255
7.094915866851807 1.1674175262451172 -0.9795297980308533 255 255 255
9.335864067077637 3.8363354206085205 -1.2783621549606323 255 255 255
18.695497512817383 5.956490993499756 0.6676869988441467 255 255 255
11.222423553466797 -8.50837230682373 -0.1719592958688736 255 255 255
20.32853126525879 -5.221169471740723 -1.5521106719970703 255 255 255
16.859996795654297 -1.670079231262207 -1.5967952013015747 255 255 255
6.634716510772705 4.667090892791748 -0.15409056842327118 255 255 255
9.052336692810059 3.722306489944458 -0.9635244607925415 255 255 255
62.16706085205078 -21.653982162475586 2.4259731769561768 255 255 255
6.193120002746582 1.8105565309524536 -1.650984764099121 255 255 255
14.485065460205078 5.129581451416016 -0.8434532880783081 255 255 255
9.88154125213623 5.936120986938477 0.09112706035375595 255 255 255
7.827400207519531 0.9020610451698303 -1.0662652254104614 255 255 255
6.753005027770996 0.5560198426246643 -1.6028131246566772 255 255 255
16.449878692626953 -5.600292682647705 -1.7870155572891235 255 255 255
8.43241024017334 -0.9282768368721008 -1.7341750860214233 255 255 255
6.459042549133301 1.252741813659668 -1.0974600315093994 255 255 255
27.783166885375977 -1.1471195220947266 -0.3788614571094513 255 255 255
8.083640098571777 -1.65162193775177 -1.689619541168213 255 255 255
7.934573173522949 -2.3222875595092773 -1.783411979675293 255 255 255
6.552308559417725 1.5890932083129883 -1.0383703708648682 255 255 255
6.572568893432617 1.1242470741271973 -1.5561537742614746 255 255 255
12.655319213867188 -0.04725158214569092 -1.7977275848388672 255 255 255
13.341772079467773 0.7114801406860352 -0.7115941047668457 255 255 255
6.1589226722717285 5.147844314575195 0.3939628601074219 255 255 255
37.5716438293457 -10.972772598266602 -1.6204839944839478 255 255 255
27.646331787109375 -1.8011939525604248 -0.1947340965270996 255 255 255
12.075719833374023 -2.070030450820923 -1.6490941047668457 255 255 255
5.198456287384033 -3.2835936546325684 -0.9361674189567566 255 255 255
7.593749523162842 0.7079918384552002 -1.6375595331192017 255 255 255
6.661665439605713 -2.555337429046631 -1.8324006795883179 255 255 255
17.803329467773438 2.2020764350891113 0.21656322479248047 255 255 255
10.315719604492188 -6.999520301818848 -0.11657144129276276 255 255 255
7.693012714385986 -0.4178389608860016 -1.6578853130340576 255 255 255
25.46368980407715 -7.382309436798096 -1.647711992263794 255 255 255
5.928244113922119 5.23953914642334 0.3759799301624298 255 255 255
9.551912307739258 -0.7452362179756165 -1.6927974224090576 255 255 255
21.474123001098633 0.3068673610687256 0.8071387410163879 255 255 255
21.30577850341797 0.9506232738494873 -0.10364679247140884 255 255 255
6.151279926300049 2.247774839401245 -1.5837255716323853 255 255 255
6.553313255310059 1.4738614559173584 -0.7143556475639343 255 255 255
33.92306137084961 -13.755596160888672 -0.9525221586227417 255 255 255
3.478771924972534 2.245223045349121 -0.765571117401123 255 255 255
22.32575035095215 1.845996379852295 0.3285703957080841 255 255 255
22.84437370300293 -2.184319019317627 -1.4117608070373535 255 255 255
14.18478775024414 -7.069691181182861 0.6247024536132812 255 255 255
7.066572189331055 2.3466556072235107 -0.6224252581596375 255 255 255
9.830495834350586 -7.301612377166748 0.30211132764816284 255 255 255
24.515043258666992 -4.822719097137451 -1.4768697023391724 255 255 255
6.90401029586792 -0.4459052085876465 -1.6636199951171875 255 255 255
6.761618614196777 2.2752363681793213 -1.4857251644134521 255 255 255
3.2584307193756104 2.4499645233154297 -0.19653728604316711 255 255 255
8.575474739074707 -2.8090240955352783 -1.6410008668899536 255 255 255
10.971552848815918 -7.409075736999512 -0.430645614862442 255 255 255
11.198163032531738 -8.652994155883789 0.6693031191825867 255 255 255
19.966747283935547 -3.3628077507019043 -1.5334079265594482 255 255 255
12.292003631591797 7.85936164855957 -0.6367675065994263 255 255 255
18.361448287963867 -9.331816673278809 -1.0582629442214966 255 255 255
6.850664138793945 1.6226030588150024 -0.6621395945549011 255 255 255
12.02017593383789 -4.377415180206299 -1.7985286712646484 255 255 255
7.5876007080078125 -2.9642210006713867 -1.7351229190826416 255 255 255
6.500895977020264 4.756669521331787 0.2104116827249527 255 255 255
8.28713321685791 -0.3046189546585083 -1.6323390007019043 255 255 255
12.25426959991455 -7.3127121925354 0.35042956471443176 255 255 255
22.61953353881836 -3.0022428035736084 -1.4065099954605103 255 255 255
13.493124961853027 -2.6512484550476074 -1.614330768585205 255 255 255
10.568197250366211 -2.3391947746276855 -1.688819408416748 255 255 255
2.9433302879333496 2.3917458057403564 -0.8075727820396423 255 255 255
15.107316970825195 3.274322032928467 0.6156201362609863 255 255 255
14.03099250793457 -8.270268440246582 -0.4674251973628998 255 255 255
17.39576530456543 -9.224420547485352 -0.4444469213485718 255 255 255
5.040614604949951 -3.8073110580444336 -1.1689356565475464 255 255 255
8.620484352111816 -2.277869701385498 -1.7521265745162964 255 255 255
6.327305793762207 1.9422329664230347 -1.644731044769287 255 255 255
8.504546165466309 3.839104652404785 -1.018038034439087 255 255 255
7.931264877319336 0.8236438632011414 -1.3024815320968628 255 255 255
3.468031644821167 2.836501121520996 -0.06550724804401398 255 255 255
13.857233047485352 7.041996955871582 -0.6230394244194031 255 255 255
6.427694797515869 4.826845645904541 0.1988471895456314 255 255 255
19.295475006103516 5.822791576385498 -0.5043041706085205 255 255 255
19.429468154907227 -7.195311069488525 -0.9898064136505127 255 255 255
10.472867965698242 -3.285482883453369 -1.7662608623504639 255 255 255
15.021758079528809 3.4963552951812744 0.36753833293914795 255 255 255
9.307197570800781 4.0967488288879395 0.6022109389305115 255 255 255
10.422078132629395 -6.935189247131348 0.11085949093103409 255 255 255
9.489261627197266 5.655464172363281 0.3191016614437103 255 255 255
21.402164459228516 0.7780649065971375 0.3607024848461151 255 255 255
12.938658714294434 -7.756937026977539 -0.7576726675033569 255 255 255
8.977741241455078 3.878246307373047 -1.0968745946884155 255 255 255
17.185094833374023 3.671236991882324 -0.1728641837835312 255 255 255
6.394896030426025 4.808870792388916 0.07745140045881271 255 255 255
54.707950592041016 -4.427600860595703 2.051978349685669 255 255 255
17.63939094543457 2.933461904525757 0.5333114862442017 255 255 255
13.177135467529297 0.24228119850158691 -0.7324743866920471 255 255 255
5.084146976470947 1.9038147926330566 -1.2241281270980835 255 255 255
28.122507095336914 -2.0039634704589844 -0.5685696005821228 255 255 255
17.784482955932617 -3.4622421264648438 -1.5953971147537231 255 255 255
8.313427925109863 0.8098087310791016 -0.7325533628463745 255 255 255
17.415666580200195 -9.131903648376465 -0.6606196165084839 255 255 255
