ply
format ascii 1.0
element vertex 692
property float x
property float y
property float z
property uchar red
property uchar green
property uchar blue
end_header
15.909982681274414 -7.8967671394348145 -0.36272871494293213 255 255 255
12.304306030273438 0.756740152835846 -1.5238134860992432 255 255 255
6.498739242553711 2.6761794090270996 -0.7400632500648499 255 255 255
6.237097263336182 1.7330114841461182 -1.5918723344802856 255 255 255
18.892040252685547 6.592084884643555 0.43171608448028564 255 255 255
21.934865951538086 -8.781783103942871 0.15796321630477905 255 255 255
6.970994472503662 -0.05647449567914009 -1.716442584991455 255 255 255
18.16349983215332 -3.1785471439361572 -1.5208503007888794 255 255 255
8.809070587158203 1.0879898071289062 -1.6650376319885254 255 255 255
3.5498857498168945 2.302324056625366 -0.8450974225997925 255 255 255
34.47663497924805 -9.001578330993652 -1.6361125707626343 255 255 255
6.343143463134766 2.2746477127075195 -0.8782787919044495 255 255 255
74.40496063232422 -14.362921714782715 0.0374247208237648 255 255 255
24.472875595092773 -6.433708190917969 -1.7479270696640015 255 255 255
7.4798583984375 0.1092648133635521 -1.671925663948059 255 255 255
3.0355656147003174 2.5437681674957275 -0.13891054689884186 255 255 255
9.735528945922852 6.575570106506348 0.6622890830039978 255 255 255
15.576547622680664 -7.8724188804626465 -0.1351182460784912 255 255 255
13.188151359558105 0.48716917634010315 -0.6069769859313965 255 255 255
10.583727836608887 -3.7975332736968994 -1.7043735980987549 255 255 255
7.683230400085449 1.393742322921753 -1.2160725593566895 255 255 255
17.920434951782227 -2.3518617153167725 -1.5417025089263916 255 255 255
8.8179292678833 4.232525825500488 -0.8039320707321167 255 255 255
9.529891014099121 4.245866775512695 0.24326969683170319 255 255 255
14.933027267456055 -5.3780646324157715 -1.8691099882125854 255 255 255
3.281505584716797 2.5416245460510254 -0.42959922552108765 255 255 255
13.642457008361816 -2.2286887168884277 -1.6531555652618408 255 255 255
13.247764587402344 -0.018378999084234238 -1.6688010692596436 255 255 255
10.126222610473633 -2.8501365184783936 -1.733072280883789 255 255 255
22.84299087524414 -1.718691349029541 -1.5387217998504639 255 255 255
14.095967292785645 -1.2522536516189575 -1.6105713844299316 255 255 255
10.12371826171875 4.517151355743408 0.36121439933776855 255 255 255
9.723428726196289 5.974639892578125 0.21370407938957214 255 255 255
6.363345623016357 5.183444023132324 -0.2713998258113861 255 255 255
7.663274765014648 -0.37171369791030884 -1.6471704244613647 255 255 255
16.494680404663086 -5.846311569213867 -1.7182018756866455 255 255 255
15.912104606628418 -0.8153746724128723 -1.5014468431472778 255 255 255
17.903478622436523 3.531027317047119 -0.3561919033527374 255 255 255
15.576224327087402 5.725552082061768 -0.8065212368965149 255 255 255
12.944418907165527 0.2641119658946991 -0.8973122835159302 255 255 255
4.680184841156006 2.115659475326538 -1.1497665643692017 255 255 255
16.255786895751953 -2.6943297386169434 -1.604270339012146 255 255 255
6.4013447761535645 -0.3913424015045166 -1.7394577264785767 255 255 255
4.422807216644287 2.129664659500122 -1.0684776306152344 255 255 255
4.286145210266113 2.0988929271698 -0.746752917766571 255 255 255
8.827098846435547 0.9266929626464844 -0.7507410049438477 255 255 255
3.932758092880249 2.225705146789551 -0.8472893834114075 255 255 255
34.41885757446289 -13.179668426513672 -0.1260252445936203 255 255 255
12.60318660736084 -7.256575107574463 0.37056174874305725 255 255 255
18.310516357421875 2.6234118938446045 -0.13781531155109406 255 255 255
13.417560577392578 -0.04578819498419762 -0.4813694953918457 255 255 255
6.740297317504883 -1.0865951776504517 -1.6740565299987793 255 255 255
5.7757344245910645 -3.4052257537841797 -0.8059166073799133 255 255 255
6.403101921081543 -1.0747500658035278 -1.6824610233306885 255 255 255
4.170371055603027 2.220874547958374 -0.9884762763977051 255 255 255
6.832345962524414 1.4696037769317627 -1.079620361328125 255 255 255
8.565464973449707 1.0017471313476562 -0.9817577004432678 255 255 255
11.138136863708496 -6.930226802825928 -0.2244558036327362 255 255 255
9.256815910339355 0.9812624454498291 -1.5516905784606934 255 255 255
16.282453536987305 -7.4561591148376465 0.4038847088813782 255 255 255
25.41779136657715 -1.9708112478256226 -1.4338990449905396 255 255 255
6.0366621017456055 5.195106506347656 0.4186517298221588 255 255 255
18.992216110229492 6.61776876449585 0.36139044165611267 255 255 255
11.543096542358398 -6.601708889007568 0.2922041118144989 255 255 255
6.130396842956543 1.051138997077942 -1.5755829811096191 255 255 255
12.381741523742676 -6.812497138977051 0.5104267001152039 255 255 255
5.356377124786377 -3.0480570793151855 -1.2114133834838867 255 255 255
56.248191833496094 -18.01636505126953 2.1305978298187256 255 255 255
13.359236717224121 1.2389525175094604 -0.7797771096229553 255 255 255
7.13995885848999 1.3943907022476196 -1.3513262271881104 255 255 255
13.033990859985352 0.9797778725624084 -1.4512871503829956 255 255 255
17.233442306518555 7.119807243347168 -0.007751606870442629 255 255 255
34.4587516784668 -12.444162368774414 0.30120760202407837 255 255 255
6.858628273010254 2.2608487606048584 -1.5006016492843628 255 255 255
6.905361652374268 0.4201326072216034 -1.5962092876434326 255 255 255
9.400430679321289 0.8916630148887634 -1.190039038658142 255 255 255
7.175547122955322 -0.2303600013256073 -1.597902774810791 255 255 255
12.975943565368652 0.7348884344100952 -0.7724519968032837 255 255 255
16.371246337890625 -7.638729095458984 0.1795482188463211 255 255 255
12.856739044189453 9.382994651794434 -0.43922457098960876 255 255 255
5.628932952880859 -2.325382947921753 -1.1987383365631104 255 255 255
8.737035751342773 0.9979478120803833 -1.0747138261795044 255 255 255
34.88400650024414 0.5932278633117676 0.5807907581329346 255 255 255
9.323288917541504 -6.375670909881592 -0.9824143648147583 255 255 255
5.962053298950195 1.3635817766189575 -1.6117390394210815 255 255 255
9.319409370422363 4.155660629272461 0.5183720588684082 255 255 255
9.740300178527832 -1.0620161294937134 -1.6326771974563599 255 255 255
13.012803077697754 0.6184616088867188 -0.7552592754364014 255 255 255
11.434371948242188 -7.480132102966309 0.13918474316596985 255 255 255
11.13707160949707 -6.8280463218688965 -0.617225170135498 255 255 255
8.608202934265137 1.0287660360336304 -0.7937582731246948 255 255 255
14.875712394714355 7.81933069229126 0.11605632305145264 255 255 255
6.467341423034668 -0.39188694953918457 -1.6998709440231323 255 255 255
13.087337493896484 0.6675984859466553 -0.8926957845687866 255 255 255
13.11202621459961 -0.16526949405670166 -0.8330932259559631 255 255 255
34.146507263183594 -1.9801596403121948 -0.6958938241004944 255 255 255
10.795352935791016 -7.207759857177734 0.13907665014266968 255 255 255
8.7052001953125 4.296371936798096 -0.28660011291503906 255 255 255
5.481688976287842 -2.683166027069092 -1.2775042057037354 255 255 255
9.104853630065918 0.9235469102859497 -0.6852664351463318 255 255 255
5.629960536956787 5.3129472732543945 -0.13049253821372986 255 255 255
28.07164764404297 1.0734376907348633 -0.016770116984844208 255 255 255
23.334148406982422 -9.704232215881348 -0.2823840081691742 255 255 255
9.335718154907227 4.1579437255859375 0.5303056836128235 255 255 255
7.27236270904541 -2.6713478565216064 -1.4945422410964966 255 255 255
33.98435974121094 -8.232449531555176 -1.5604997873306274 255 255 255
15.007364273071289 -3.9200429916381836 -1.7358335256576538 255 255 255
8.540273666381836 4.307776927947998 -1.075182557106018 255 255 255
12.732404708862305 -2.1196725368499756 -1.6312404870986938 255 255 255
19.926340103149414 -8.685257911682129 0.2387363314628601 255 255 255
17.952316284179688 3.1758968830108643 0.8571721911430359 255 255 255
7.182697296142578 0.0007537695346400142 -1.639165997505188 255 255 255
13.064937591552734 -6.725871562957764 0.44738826155662537 255 255 255
9.79594612121582 6.436227321624756 0.2002870738506317 255 255 255
7.019905090332031 0.954454243183136 -1.5670338869094849 255 255 255
7.084153175354004 1.4605504274368286 -1.2543188333511353 255 255 255
6.030440807342529 1.4194512367248535 -1.6446962356567383 255 255 255
8.25192642211914 1.1071958541870117 -1.169454574584961 255 255 255
19.181438446044922 -8.736075401306152 -0.5212528705596924 255 255 255
5.442586421966553 -2.725762367248535 -1.1113280057907104 255 255 255
19.638395309448242 -6.8031325340271 -1.379382610321045 255 255 255
6.946513652801514 2.0665786266326904 -0.6119596362113953 255 255 255
9.360204696655273 -2.5676674842834473 -1.8134520053863525 255 255 255
9.934540748596191 6.535870552062988 -0.5714944005012512 255 255 255
5.760864734649658 5.271719932556152 -0.007573985960334539 255 255 255
10.85726547241211 -6.689153671264648 -0.8255926966667175 255 255 255
17.830461502075195 5.215240478515625 0.5590941309928894 255 255 255
8.046653747558594 1.1540005207061768 -1.0315500497817993 255 255 255
9.14162826538086 5.716830730438232 0.21307095885276794 255 255 255
10.024481773376465 -0.5672981142997742 -1.62141752243042 255 255 255
18.47787857055664 6.690347671508789 0.3222898840904236 255 255 255
6.740566253662109 -0.9068964719772339 -1.6466137170791626 255 255 255
4.220448970794678 2.2406580448150635 -0.8700348138809204 255 255 255
12.11225414276123 -1.4367066621780396 -1.7141895294189453 255 255 255
5.571850299835205 5.296567440032959 -0.0076111494563519955 255 255 255
12.227344512939453 9.211555480957031 -0.5496276021003723 255 255 255
4.5606465339660645 2.0519561767578125 -0.9732949733734131 255 255 255
22.964458465576172 -9.680449485778809 -0.5984523892402649 255 255 255
9.64753246307373 3.925266742706299 -0.954448401927948 255 255 255
3.1348390579223633 2.466935634613037 -0.4970817565917969 255 255 255
18.7425594329834 -5.267327785491943 -1.6887521743774414 255 255 255
5.552886009216309 -2.4540281295776367 -1.3393497467041016 255 255 255
2.9889464378356934 2.5177149772644043 -0.7021536827087402 255 255 255
17.738632202148438 3.023449182510376 -0.3135142922401428 255 255 255
7.013522148132324 -2.508504867553711 -1.7844380140304565 255 255 255
14.994553565979004 0.0377638004720211 -1.5573512315750122 255 255 255
19.37311553955078 -3.441565990447998 -1.5501902103424072 255 255 255
8.114505767822266 1.6523189544677734 -0.07730966806411743 255 255 255
3.2879445552825928 2.7242586612701416 -0.13000304996967316 255 255 255
8.315149307250977 1.0920053720474243 -0.8363595008850098 255 255 255
24.893962860107422 -4.5924506187438965 -1.5247960090637207 255 255 255
6.504353046417236 1.2803868055343628 -1.640936017036438 255 255 255
8.452167510986328 0.7121884822845459 -1.5481925010681152 255 255 255
20.001428604125977 6.284465312957764 0.956434965133667 255 255 255
32.68381118774414 -3.0702664852142334 -1.1787970066070557 255 255 255
6.252262592315674 2.1136014461517334 -1.0147470235824585 255 255 255
7.4379096031188965 -2.7214527130126953 -1.8592298030853271 255 255 255
29.48758316040039 -4.799625873565674 -1.5314308404922485 255 255 255
7.64340353012085 0.7230560183525085 -1.6275190114974976 255 255 255
11.770642280578613 -7.09276819229126 0.5552709698677063 255 255 255
6.246997833251953 1.8891156911849976 -1.4017999172210693 255 255 255
6.212001800537109 2.18940806388855 -1.0148041248321533 255 255 255
14.46142578125 6.535297143273056e-05 -0.47194868326187134 255 255 255
26.822824478149414 -2.906545400619507 -1.5056376457214355 255 255 255
11.2911376953125 -7.065211772918701 0.26947882771492004 255 255 255
7.202626705169678 -1.8837834596633911 -1.7678303718566895 255 255 255
21.28985595703125 -6.930058002471924 -1.7606459856033325 255 255 255
21.348873138427734 -8.186612129211426 -1.7234570980072021 255 255 255
21.21134376525879 2.6545791625976562 0.4344353675842285 255 255 255
3.657625198364258 2.473659038543701 -0.28957003355026245 255 255 255
17.545753479003906 4.960592269897461 0.5442704558372498 255 255 255
16.576213836669922 -4.188840389251709 -1.7084616422653198 255 255 255
15.046381950378418 8.765052795410156 0.2792630195617676 255 255 255
11.384796142578125 -6.724567890167236 0.15511716902256012 255 255 255
8.17905044555664 0.5511154532432556 -1.7150980234146118 255 255 255
13.609216690063477 -1.7699283361434937 -1.6367619037628174 255 255 255
18.46759605407715 1.8086458444595337 -0.2734355032444 255 255 255
21.21202278137207 1.812032699584961 -0.21347807347774506 255 255 255
8.281850814819336 0.4540855884552002 -1.6063860654830933 255 255 255
17.966596603393555 6.871541976928711 -0.027493909001350403 255 255 255
13.023454666137695 0.18292060494422913 -0.6626384854316711 255 255 255
8.437172889709473 0.8708260655403137 -1.6448931694030762 255 255 255
13.18893051147461 8.811666488647461 -0.3847208321094513 255 255 255
21.3604793548584 1.435028314590454 0.677080512046814 255 255 255
23.435161590576172 1.4288349151611328 -0.11841842532157898 255 255 255
8.036182403564453 -2.3503315448760986 -1.7034269571304321 255 255 255
5.7903852462768555 5.091459274291992 -0.19808921217918396 255 255 255
36.819236755371094 -8.041364669799805 -1.3934787511825562 255 255 255
6.098531723022461 1.2244927883148193 -1.5957850217819214 255 255 255
5.33725643157959 -2.914196729660034 -1.4379355907440186 255 255 255
8.963665962219238 4.137502193450928 -1.2144557237625122 255 255 255
14.070201873779297 5.334774971008301 -0.9436855316162109 255 255 255
5.456538677215576 -3.1540584564208984 -0.9361247420310974 255 255 255
23.67023277282715 1.0310397148132324 0.4627312421798706 255 255 255
3.6271231174468994 2.369774580001831 -0.2952415347099304 255 255 255
7.145230293273926 2.4530856609344482 -0.6308097243309021 255 255 255
17.328479766845703 7.008186340332031 0.818175733089447 255 255 255
5.979543685913086 5.068014144897461 0.30115729570388794 255 255 255
8.977173805236816 4.522867679595947 0.4976230561733246 255 255 255
11.976905822753906 8.82219123840332 -0.7708055973052979 255 255 255
29.591686248779297 -10.815339088439941 -1.7168148756027222 255 255 255
15.194963455200195 9.20694637298584 0.4226842522621155 255 255 255
70.64515686035156 -7.0681657791137695 1.8344146013259888 255 255 255
5.618201732635498 -2.3746960163116455 -1.3552175760269165 255 255 255
16.663827896118164 -4.5744757652282715 -1.659563660621643 255 255 255
24.936647415161133 -9.935479164123535 -0.5015824437141418 255 255 255
7.572357654571533 -2.8653175830841064 -1.8029578924179077 255 255 255
2.8243894577026367 2.4515819549560547 -0.7412413358688354 255 255 255
5.3279852867126465 -3.413259744644165 -1.3119561672210693 255 255 255
6.8848114013671875 -1.4907763004302979 -1.8026301860809326 255 255 255
19.701156616210938 -4.914377689361572 -1.6413781642913818 255 255 255
40.9227409362793 -3.5787253379821777 -0.32700783014297485 255 255 255
8.933950424194336 4.952210903167725 0.249317929148674 255 255 255
6.655126571655273 1.4187636375427246 -1.2974433898925781 255 255 255
9.202293395996094 1.9717177152633667 -0.5562112927436829 255 255 255
32.052555084228516 -2.6455328464508057 -1.158606767654419 255 255 255
10.438872337341309 4.437113285064697 0.19675493240356445 255 255 255
6.435395240783691 5.061305522918701 0.5621213912963867 255 255 255
17.37065315246582 3.695449113845825 0.24822533130645752 255 255 255
6.326260089874268 2.3719282150268555 -0.9257025122642517 255 255 255
54.906070709228516 -1.8480640649795532 0.31829628348350525 255 255 255
12.291764259338379 -7.964056491851807 0.5682621002197266 255 255 255
7.04315710067749 2.206899404525757 -0.6561286449432373 255 255 255
21.042097091674805 2.292250633239746 0.09738371521234512 255 255 255
15.047757148742676 8.163111686706543 0.12302954494953156 255 255 255
4.2313456535339355 2.126025438308716 -0.9816091060638428 255 255 255
5.528894901275635 5.404012680053711 -0.12816300988197327 255 255 255
6.399335861206055 4.9062042236328125 0.23337450623512268 255 255 255
12.289518356323242 -6.8000335693359375 0.5957942008972168 255 255 255
10.469659805297852 -6.933887004852295 -0.3032087981700897 255 255 255
21.797561645507812 2.873023271560669 -0.6556546092033386 255 255 255
9.340767860412598 -0.8962082266807556 -1.6840903759002686 255 255 255
12.231610298156738 4.995481014251709 -1.0565019845962524 255 255 255
6.0718159675598145 1.3905985355377197 -1.656704306602478 255 255 255
6.44479513168335 1.3647695779800415 -1.689744234085083 255 255 255
6.051062107086182 1.471030592918396 -1.4865952730178833 255 255 255
9.830534934997559 4.5663533210754395 -0.2621765732765198 255 255 255
16.136884689331055 6.30153226852417 -0.7962916493415833 255 255 255
13.033334732055664 5.53594446182251 -0.1699506640434265 255 255 255
12.316847801208496 5.27880334854126 0.012180990539491177 255 255 255
9.996434211730957 -6.704695701599121 -0.3992142379283905 255 255 255
13.12488842010498 1.0874069929122925 -0.47360631823539734 255 255 255
5.5304412841796875 -2.5611867904663086 -1.0380969047546387 255 255 255
7.935813903808594 1.1678340435028076 -1.0397554636001587 255 255 255
45.03185272216797 -2.122654438018799 -0.4114222228527069 255 255 255
13.738788604736328 -4.598964691162109 -1.8053078651428223 255 255 255
16.82748794555664 2.4836924076080322 -0.3105490505695343 255 255 255
6.242187023162842 1.863034725189209 -0.9919239282608032 255 255 255
7.826939582824707 1.1190638542175293 -1.1003055572509766 255 255 255
4.324544906616211 2.182788133621216 -0.9430492520332336 255 255 255
4.773073673248291 2.2046799659729004 -1.1608470678329468 255 255 255
5.238912105560303 -2.45678448677063 -1.0838145017623901 255 255 255
41.289459228515625 -14.173653602600098 0.6657192707061768 255 255 255
7.752782344818115 4.515167236328125 -0.9298732280731201 255 255 255
8.153204917907715 -0.4184735119342804 -1.6065198183059692 255 255 255
13.575364112854004 0.2565871775150299 -0.20857028663158417 255 255 255
9.102866172790527 1.346873164176941 -1.5254734754562378 255 255 255
14.858098030090332 5.077416896820068 0.6980405449867249 255 255 255
3.504805088043213 2.262953281402588 -0.7779315114021301 255 255 255
10.554346084594727 -7.3955769538879395 0.21000610291957855 255 255 255
11.419930458068848 -6.917407035827637 0.006447861902415752 255 255 255
9.290568351745605 4.434169292449951 0.5240605473518372 255 255 255
12.919890403747559 -0.8876393437385559 -1.653846263885498 255 255 255
12.941441535949707 0.7618663907051086 -0.9644613862037659 255 255 255
28.91539192199707 -10.808545112609863 -1.1606677770614624 255 255 255
26.048418045043945 -6.795345306396484 -1.6278287172317505 255 255 255
9.657876968383789 -1.5173040628433228 -1.6027292013168335 255 255 255
8.1721773147583 -2.910149097442627 -1.6217256784439087 255 255 255
11.415011405944824 -7.018951892852783 -0.39035478234291077 255 255 255
6.290072441101074 4.88815450668335 0.41335639357566833 255 255 255
7.08261775970459 -2.2247724533081055 -1.7614808082580566 255 255 255
47.763938903808594 -11.17968463897705 -1.4136743545532227 255 255 255
8.294624328613281 1.235205888748169 -0.15430301427841187 255 255 255
6.35548210144043 5.7361674308776855 -0.2988734543323517 255 255 255
16.17949104309082 -0.8548685312271118 -1.0217125415802002 255 255 255
9.150538444519043 4.258309841156006 -0.7589588761329651 255 255 255
13.026187896728516 -0.29180458188056946 -1.0032355785369873 255 255 255
13.130864143371582 1.197108507156372 -0.7882571816444397 255 255 255
3.031682252883911 2.4126758575439453 -0.7461556196212769 255 255 255
25.667600631713867 -6.084023475646973 -1.6439321041107178 255 255 255
17.7550048828125 6.5379767417907715 -0.8188000321388245 255 255 255
8.931640625 4.151717662811279 -1.2299180030822754 255 255 255
17.661848068237305 4.323183536529541 -0.2930483818054199 255 255 255
7.597873687744141 1.5026551485061646 -1.6347790956497192 255 255 255
9.212726593017578 4.177489757537842 -1.0897635221481323 255 255 255
4.611555099487305 2.097264289855957 -0.7510632872581482 255 255 255
6.960339546203613 -1.6849359273910522 -1.7591514587402344 255 255 255
24.30202293395996 -6.692687511444092 -1.2995679378509521 255 255 255
13.693644523620605 0.36847418546676636 -0.2136036902666092 255 255 255
8.125640869140625 0.8699524402618408 -1.5218098163604736 255 255 255
5.964885234832764 5.134927749633789 -0.1821468472480774 255 255 255
19.927087783813477 -9.22948169708252 -0.1459628790616989 255 255 255
19.649633407592773 -6.355432987213135 -0.8180201649665833 255 255 255
14.393399238586426 0.144842728972435 -0.03120647929608822 255 255 255
12.62212085723877 -1.5185973644256592 -1.6527429819107056 255 255 255
16.578411102294922 -8.0966215133667 -0.4912314713001251 255 255 255
21.39965057373047 2.4466662406921387 -0.5959890484809875 255 255 255
12.959634780883789 0.20384752750396729 -0.6839068531990051 255 255 255
6.4440436363220215 1.5495328903198242 -1.1961194276809692 255 255 255
2.8034820556640625 2.514932870864868 -0.7095375657081604 255 255 255
7.085329532623291 0.12169679999351501 -1.62893545627594 255 255 255
8.6504545211792 -2.965554714202881 -1.6647167205810547 255 255 255
17.083702087402344 -2.6404659748077393 -1.658517599105835 255 255 255
8.244808197021484 2.027778387069702 -0.13161978125572205 255 255 255
13.726424217224121 0.4452452063560486 -1.477804183959961 255 255 255
15.175304412841797 8.776339530944824 -0.014382603578269482 255 255 255
4.999648571014404 2.1197426319122314 -1.167500615119934 255 255 255
20.940608978271484 2.545682907104492 0.6676985621452332 255 255 255
8.57043743133545 2.3280630111694336 -0.5856667757034302 255 255 255
7.789124965667725 -0.4342436194419861 -1.6353569030761719 255 255 255
8.420073509216309 -1.115222692489624 -1.6731659173965454 255 255 255
18.73525047302246 -1.1532635688781738 -1.5050334930419922 255 255 255
17.75057029724121 3.57490611076355 -0.12859994173049927 255 255 255
10.131813049316406 -2.963301658630371 -1.784088373184204 255 255 255
12.629575729370117 5.539128303527832 -0.6473217606544495 255 255 255
9.046704292297363 1.033060908317566 -1.4989415407180786 255 255 255
7.122593402862549 2.7786436080932617 -0.47384434938430786 255 255 255
3.5313026905059814 2.227696657180786 -0.7155033349990845 255 255 255
6.736851215362549 -1.2903907299041748 -1.7151447534561157 255 255 255
8.224714279174805 4.26552152633667 -0.773910641670227 255 255 255
10.580810546875 4.809515476226807 0.6338396072387695 255 255 255
15.317398071289062 8.973336219787598 0.1776513308286667 255 255 255
9.676837921142578 6.170499324798584 0.14784803986549377 255 255 255
6.491714954376221 2.023526668548584 -0.652888834476471 255 255 255
21.22433090209961 1.1577507257461548 0.4454803466796875 255 255 255
16.50868034362793 -6.24805212020874 -1.8278416395187378 255 255 255
30.930553436279297 -1.7600358724594116 -1.1165515184402466 255 255 255
11.598653793334961 5.978436470031738 -0.9425381422042847 255 255 255
9.90853500366211 4.367153644561768 0.4210740923881531 255 255 255
6.7895708084106445 2.1701080799102783 -1.5535227060317993 255 255 255
12.557710647583008 -0.7696294188499451 -1.6980836391448975 255 255 255
5.460735321044922 -2.803905725479126 -0.9285929799079895 255 255 255
10.684815406799316 -1.6484947204589844 -1.6901816129684448 255 255 255
6.326778888702393 -0.03593240678310394 -1.6839570999145508 255 255 255
3.2705602645874023 2.5005695819854736 -0.2402353733778 255 255 255
11.282745361328125 -2.828404664993286 -1.7511711120605469 255 255 255
16.877365112304688 7.051640510559082 0.8222590684890747 255 255 255
15.517312049865723 7.443404197692871 -0.35730308294296265 255 255 255
5.224255084991455 -3.5123634338378906 -1.0953154563903809 255 255 255
6.276625633239746 1.5588562488555908 -1.050915241241455 255 255 255
22.366504669189453 -5.3510518074035645 -1.6408952474594116 255 255 255
3.2382800579071045 2.581936836242676 -0.38197895884513855 255 255 255
15.699662208557129 -7.867019176483154 -0.03530975431203842 255 255 255
6.929138660430908 2.578007459640503 -1.4851700067520142 255 255 255
9.71667766571045 -6.5701727867126465 -0.48054754734039307 255 255 255
42.23466110229492 -10.445527076721191 -1.3891263008117676 255 255 255
16.867267608642578 4.05311918258667 0.3935528099536896 255 255 255
7.583813667297363 -0.1713082194328308 -1.6544852256774902 255 255 255
3.8335087299346924 2.256312847137451 -0.44437217712402344 255 255 255
20.113439559936523 -2.3888461589813232 -1.5857994556427002 255 255 255
9.745043754577637 4.986445426940918 0.34189271926879883 255 255 255
7.2000603675842285 1.2131397724151611 -0.7043293714523315 255 255 255
6.838737964630127 0.42697542905807495 -1.5633608102798462 255 255 255
41.01897048950195 -15.848649978637695 0.08143456280231476 255 255 255
5.446346759796143 -2.3001086711883545 -1.3423619270324707 255 255 255
5.959671974182129 -2.8344619274139404 -0.3448690176010132 255 255 255
8.417526245117188 -2.435800313949585 -1.782619833946228 255 255 255
13.75277042388916 -6.255561351776123 0.7099828720092773 255 255 255
13.248590469360352 -7.306679725646973 -0.8711669445037842 255 255 255
13.049375534057617 0.2721957266330719 -0.9298519492149353 255 255 255
22.961885452270508 0.19180405139923096 0.9244154095649719 255 255 255
14.516213417053223 -7.56985330581665 -0.8538204431533813 255 255 255
21.52267837524414 3.1803715229034424 0.2710817754268646 255 255 255
38.699710845947266 -3.343508720397949 -0.5765203237533569 255 255 255
10.075885772705078 -1.6955996751785278 -1.682814359664917 255 255 255
34.80105209350586 -2.704915761947632 -1.162423014640808 255 255 255
16.04781150817871 -0.7708825469017029 -1.078963041305542 255 255 255
27.747655868530273 -10.547547340393066 -1.1700201034545898 255 255 255
22.59321403503418 3.835162401199341 1.0795735120773315 255 255 255
9.316818237304688 -0.5712563395500183 -1.7358970642089844 255 255 255
9.824724197387695 6.026472568511963 -0.5505438446998596 255 255 255
9.360157012939453 -1.7632935047149658 -1.7344870567321777 255 255 255
12.13868522644043 -7.257843971252441 -0.5127984881401062 255 255 255
13.427635192871094 -1.0254794359207153 -1.6396942138671875 255 255 255
14.987832069396973 8.110603332519531 -0.36024990677833557 255 255 255
15.522954940795898 -2.3521158695220947 -1.7007335424423218 255 255 255
9.393627166748047 -6.391980171203613 -1.0241185426712036 255 255 255
11.796867370605469 -6.911264419555664 0.7409202456474304 255 255 255
17.870927810668945 -1.8373479843139648 -1.5573015213012695 255 255 255
7.702734470367432 1.2599782943725586 -1.0227323770523071 255 255 255
21.377676010131836 2.8459081649780273 0.5515827536582947 255 255 255
11.421696662902832 5.121545314788818 -0.8805373907089233 255 255 255
16.313758850097656 7.312825679779053 -0.6074298620223999 255 255 255
5.440579414367676 -2.6868178844451904 -1.2829973697662354 255 255 255
16.96070671081543 -1.909530758857727 -1.5718998908996582 255 255 255
54.846351623535156 -1.9858342409133911 0.30980604887008667 255 255 255
9.631852149963379 -0.651308536529541 -1.6563401222229004 255 255 255
11.999555587768555 8.262313842773438 -0.7396522760391235 255 255 255
8.126590728759766 1.0430619716644287 -0.8683966994285583 255 255 255
9.343881607055664 4.270206928253174 0.2916823923587799 255 255 255
32.07912826538086 -4.026352405548096 -1.4034881591796875 255 255 255
10.076531410217285 4.645200252532959 -0.021405458450317383 255 255 255
41.164451599121094 0.15058620274066925 0.6650800704956055 255 255 255
10.126049995422363 -1.9193618297576904 -1.6274771690368652 255 255 255
7.056464672088623 6.742480754852295 0.5487897992134094 255 255 255
6.2901611328125 -3.445756196975708 -0.7054644227027893 255 255 255
7.9515380859375 0.2718546688556671 -1.6467163562774658 255 255 255
7.854970932006836 0.44195112586021423 -1.646261215209961 255 255 255
8.983988761901855 4.716733455657959 0.257906049489975 255 255 255
8.35908317565918 -2.371769666671753 -1.814432144165039 255 255 255
3.9298086166381836 2.286090612411499 -1.0557522773742676 255 255 255
7.3891425132751465 1.3080531358718872 -0.48338985443115234 255 255 255
6.060471057891846 -2.7297234535217285 -0.35850316286087036 255 255 255
11.36276912689209 5.179917335510254 -0.9448351860046387 255 255 255
4.861997127532959 2.1553924083709717 -0.7783086895942688 255 255 255
6.503875255584717 2.005444288253784 -0.7851747870445251 255 255 255
9.673646926879883 0.9346605539321899 -1.3121939897537231 255 255 255
6.580572128295898 4.759711265563965 -0.25188007950782776 255 255 255
13.686065673828125 -0.29582545161247253 -0.8632071018218994 255 255 255
9.456591606140137 6.55779504776001 0.23977556824684143 255 255 255
19.544309616088867 6.4643707275390625 0.5856649279594421 255 255 255
7.983332633972168 1.0172358751296997 -0.7849977612495422 255 255 255
6.375062465667725 5.095035552978516 -0.033782657235860825 255 255 255
3.220579147338867 2.442645788192749 -0.7954805493354797 255 255 255
9.141505241394043 0.9879755973815918 -0.4840351343154907 255 255 255
12.456427574157715 0.7808772921562195 -1.652308702468872 255 255 255
9.181554794311523 4.22911262512207 -0.5852175354957581 255 255 255
4.726929187774658 2.0436270236968994 -1.0060279369354248 255 255 255
6.786269187927246 1.4998207092285156 -1.0497325658798218 255 255 255
17.691492080688477 3.1993706226348877 -0.2523695230484009 255 255 255
11.763835906982422 -7.040036201477051 -0.71022629737854 255 255 255
16.952054977416992 -8.222280502319336 -0.661392867565155 255 255 255
12.167902946472168 8.926529884338379 -0.5571605563163757 255 255 255
17.78427505493164 3.1664888858795166 0.47637856006622314 255 255 255
9.723379135131836 6.069728374481201 -0.18500156700611115 255 255 255
16.506473541259766 7.215551376342773 0.5834923982620239 255 255 255
12.464954376220703 -1.4858366250991821 -1.6739625930786133 255 255 255
9.651602745056152 -3.2691566944122314 -1.85667884349823 255 255 255
12.594202041625977 8.860300064086914 -0.3918936550617218 255 255 255
44.994014739990234 -2.139737367630005 0.3649941384792328 255 255 255
19.125825881958008 -8.64657974243164 -0.9057244658470154 255 255 255
8.381937026977539 -0.5324507355690002 -1.7010984420776367 255 255 255
3.1574814319610596 2.782667398452759 -0.19518804550170898 255 255 255
10.36270809173584 0.08869429677724838 -1.6666303873062134 255 255 255
10.03315544128418 4.46829080581665 0.11554186791181564 255 255 255
6.270212650299072 2.621959924697876 -0.9398108720779419 255 255 255
8.856496810913086 4.240761756896973 -1.303984522819519 255 255 255
11.355422973632812 -7.783294677734375 -0.3189929127693176 255 255 255
12.25271224975586 6.226707935333252 -0.37944307923316956 255 255 255
10.523628234863281 5.987997055053711 -0.9666081666946411 255 255 255
7.403581619262695 -2.6281487941741943 -1.803863763809204 255 255 255
13.011434555053711 5.229028224945068 -0.9107054471969604 255 255 255
9.063162803649902 4.243666172027588 -0.26513782143592834 255 255 255
8.247209548950195 2.2262613773345947 -0.06879731267690659 255 255 255
6.574016094207764 0.16338509321212769 -1.7821722030639648 255 255 255
25.98365020751953 -10.068049430847168 -1.4928417205810547 255 255 255
75.84244537353516 -11.394640922546387 2.2610700130462646 255 255 255
8.687732696533203 1.580793023109436 -0.01574702560901642 255 255 255
18.178142547607422 -3.630037784576416 -1.5635650157928467 255 255 255
5.479969501495361 -2.7976527214050293 -1.245007038116455 255 255 255
8.64338493347168 4.2597150802612305 -1.1853879690170288 255 255 255
13.35588550567627 1.3672962188720703 -0.6024438142776489 255 255 255
15.148560523986816 7.692699432373047 -0.24986548721790314 255 255 255
8.149056434631348 1.777295470237732 -0.17952822148799896 255 255 255
32.79570007324219 -3.092153549194336 -0.6332154870033264 255 255 255
22.958580017089844 1.155656337738037 -0.05026025325059891 255 255 255
5.552765369415283 5.254528999328613 0.14730001986026764 255 255 255
9.19682502746582 -2.9881935119628906 -1.821516990661621 255 255 255
14.39451789855957 -6.281607151031494 0.7140674591064453 255 255 255
31.143436431884766 -11.329936981201172 -0.23506565392017365 255 255 255
8.093464851379395 1.7789664268493652 -0.17473754286766052 255 255 255
6.330352306365967 1.3326658010482788 -1.6568182706832886 255 255 255
8.746946334838867 -1.3954166173934937 -1.7459403276443481 255 255 255
12.430908203125 -1.2200281620025635 -1.5911387205123901 255 255 255
18.746212005615234 -6.455999374389648 -1.764358401298523 255 255 255
5.648688316345215 -2.8558382987976074 -0.41691163182258606 255 255 255
6.4689836502075195 2.5101077556610107 -0.875283420085907 255 255 255
6.029764652252197 5.567208766937256 0.19380076229572296 255 255 255
5.378109455108643 -2.5095767974853516 -1.319312334060669 255 255 255
17.661664962768555 6.944981098175049 -0.13693180680274963 255 255 255
15.167591094970703 9.027005195617676 0.10509038716554642 255 255 255
11.44333553314209 -7.69957160949707 0.01352475956082344 255 255 255
4.061229705810547 2.2248497009277344 -0.6501061320304871 255 255 255
12.807951927185059 6.3796210289001465 -0.8844064474105835 255 255 255
10.308015823364258 5.843524932861328 -1.0208461284637451 255 255 255
13.202735900878906 1.0308935642242432 -1.1522562503814697 255 255 255
5.0478081703186035 2.1976687908172607 -1.064328908920288 255 255 255
5.249952793121338 -3.57806396484375 -0.9510608911514282 255 255 255
13.383475303649902 -0.3681245446205139 -1.6462981700897217 255 255 255
6.485970497131348 0.8058633804321289 -1.6616134643554688 255 255 255
14.882586479187012 4.493426322937012 0.3930223882198334 255 255 255
9.803572654724121 5.869986057281494 -0.10880004614591599 255 255 255
19.123071670532227 6.559140205383301 0.7575411796569824 255 255 255
20.31625747680664 -3.0717484951019287 -1.5310888290405273 255 255 255
14.912656784057617 4.20777702331543 -0.19395649433135986 255 255 255
9.59227180480957 -6.591487407684326 -0.3446776568889618 255 255 255
8.39140510559082 -0.8687031269073486 -1.7503372430801392 255 255 255
18.696550369262695 3.011524200439453 0.10183006525039673 255 255 255
15.184089660644531 -0.5982811450958252 -1.4659602642059326 255 255 255
9.853147506713867 6.471378803253174 -0.4321542978286743 255 255 255
7.867115020751953 0.8130902647972107 -1.5519357919692993 255 255 255
12.70009708404541 -4.517773628234863 -1.7744375467300415 255 255 255
5.715029239654541 -2.6246912479400635 -0.33844947814941406 255 255 255
6.462242126464844 -0.25850164890289307 -1.640194058418274 255 255 255
15.188712120056152 -7.845617294311523 -0.44624438881874084 255 255 255
14.96011734008789 -3.6604814529418945 -1.6890536546707153 255 255 255
17.61532974243164 3.3092243671417236 0.7152202725410461 255 255 255
17.29918670654297 4.486599922180176 0.6779348254203796 255 255 255
17.688947677612305 3.591667652130127 -0.06839586794376373 255 255 255
12.983874320983887 0.808771014213562 -1.5110790729522705 255 255 255
40.737789154052734 -14.331124305725098 0.1660538911819458 255 255 255
29.483047485351562 -4.687854766845703 -1.4665040969848633 255 255 255
6.0092644691467285 5.445809841156006 0.31922563910484314 255 255 255
6.890057563781738 1.0302386283874512 -1.6342483758926392 255 255 255
3.674436569213867 2.2126963138580322 -0.9338076114654541 255 255 255
6.01844596862793 5.503468990325928 0.3480440080165863 255 255 255
3.8346574306488037 2.230985164642334 -0.6968175768852234 255 255 255
18.09025001525879 -2.998002290725708 -1.6436153650283813 255 255 255
9.655352592468262 6.002901554107666 0.004413722548633814 255 255 255
12.661998748779297 5.592763423919678 -0.416501522064209 255 255 255
76.0271224975586 -10.854018211364746 0.94086754322052 255 255 255
9.683507919311523 -6.5707807540893555 -0.3871909976005554 255 255 255
27.73721694946289 -5.704714775085449 -1.4588195085525513 255 255 255
9.623883247375488 5.415401935577393 0.574408233165741 255 255 255
6.250667572021484 2.360334634780884 -1.1448743343353271 255 255 255
9.0059232711792 4.044976711273193 -0.9389409422874451 255 255 255
9.831995010375977 6.3526811599731445 -0.9755420088768005 255 255 255
10.790410995483398 -6.5432233810424805 -0.15531419217586517 255 255 255
7.650248050689697 1.2421822547912598 -0.9567744731903076 255 255 255
46.145790100097656 -8.193662643432617 -1.2641267776489258 255 255 255
17.677810668945312 6.940122127532959 -0.16748127341270447 255 255 255
6.39374303817749 1.5287543535232544 -1.0815916061401367 255 255 255
6.888003349304199 1.3213871717453003 -0.6306923031806946 255 255 255
6.300785541534424 2.1875951290130615 -1.54660165309906 255 255 255
35.351070404052734 -3.055724859237671 -1.1220908164978027 255 255 255
12.474743843078613 5.427239894866943 -0.3784710466861725 255 255 255
2.949817657470703 2.6636946201324463 -0.08748432248830795 255 255 255
54.90150833129883 -1.6640130281448364 0.3367874026298523 255 255 255
5.443516731262207 -3.1269991397857666 -1.040892481803894 255 255 255
20.886028289794922 1.5285708904266357 0.8671348094940186 255 255 255
22.720705032348633 -9.622950553894043 0.004177895840257406 255 255 255
7.244798183441162 1.1099706888198853 -1.6935904026031494 255 255 255
12.16790771484375 -1.9335647821426392 -1.6591336727142334 255 255 255
9.680191040039062 -2.9300851821899414 -1.707936406135559 255 255 255
12.7733793258667 5.620051383972168 -0.7901613712310791 255 255 255
10.73425579071045 6.377924919128418 0.4006693363189697 255 255 255
21.393373489379883 1.2945784330368042 0.6572980880737305 255 255 255
21.23814582824707 -2.007585048675537 -1.5200622081756592 255 255 255
5.971762180328369 5.140605926513672 0.30845579504966736 255 255 255
12.802055358886719 9.164436340332031 -0.4717858135700226 255 255 255
3.048659086227417 2.389956474304199 -0.8281123638153076 255 255 255
4.154404163360596 2.1181910037994385 -1.0538171529769897 255 255 255
9.195493698120117 -6.441374778747559 -0.805785596370697 255 255 255
6.342845439910889 5.130666732788086 0.24489979445934296 255 255 255
44.7592887878418 -0.8243498206138611 1.729637861251831 255 255 255
11.210728645324707 -6.928675651550293 -0.17933133244514465 255 255 255
2.9540295600891113 2.508794069290161 -0.8367253541946411 255 255 255
3.142897129058838 2.5142812728881836 -0.21061450242996216 255 255 255
17.53176498413086 3.615544557571411 0.45231232047080994 255 255 255
41.00248336791992 -14.47320556640625 0.38882264494895935 255 255 255
14.792500495910645 -0.6410344839096069 -0.885279655456543 255 255 255
11.253785133361816 -2.9431636333465576 -1.6742445230484009 255 255 255
10.46163272857666 5.093922138214111 0.18590781092643738 255 255 255
8.171754837036133 4.318692684173584 -0.92547607421875 255 255 255
16.295642852783203 -7.89468240737915 -1.0782591104507446 255 255 255
6.66893196105957 0.6670358180999756 -1.65182626247406 255 255 255
54.79896545410156 -1.9122477769851685 1.7458820343017578 255 255 255
9.267399787902832 4.7123823165893555 0.44194814562797546 255 255 255
12.27429485321045 0.3649488687515259 -1.5151771306991577 255 255 255
13.91081428527832 -0.6114533543586731 -1.6793396472930908 255 255 255
13.54200267791748 0.4849575459957123 -0.14035512506961823 255 255 255
3.338149309158325 2.981832504272461 -0.104948490858078 255 255 255
7.172568321228027 -1.8947076797485352 -1.765611171722412 255 255 255
8.697896957397461 -1.2257927656173706 -1.6613261699676514 255 255 255
9.618786811828613 0.7286926507949829 -1.6103378534317017 255 255 255
9.358991622924805 -1.9124518632888794 -1.757725715637207 255 255 255
5.685054302215576 -2.3540828227996826 -1.5036314725875854 255 255 255
9.328130722045898 4.039421081542969 -0.831989049911499 255 255 255
31.961044311523438 -4.132071495056152 -1.458035945892334 255 255 255
16.105958938598633 6.341738700866699 -0.7777472138404846 255 255 255
7.809864044189453 -1.7258896827697754 -1.6736000776290894 255 255 255
32.35813522338867 -3.633258819580078 -0.657567024230957 255 255 255
23.365345001220703 -1.6298846006393433 -1.4349209070205688 255 255 255
19.108102798461914 -8.750335693359375 -0.45655691623687744 255 255 255
10.817869186401367 -6.401160717010498 -0.20812617242336273 255 255 255
12.400556564331055 -6.816877365112305 0.33154723048210144 255 255 255
15.1113862991333 -6.629002571105957 0.5848572850227356 255 255 255
8.440053939819336 2.4964704513549805 -0.32120344042778015 255 255 255
12.755477905273438 -7.348542213439941 -0.5012431740760803 255 255 255
3.098154067993164 2.5988430976867676 -0.19681541621685028 255 255 255
4.513838291168213 2.076514720916748 -0.9895387887954712 255 255 255
18.364850997924805 6.745207786560059 0.14746755361557007 255 255 255
33.55342483520508 -7.822158336639404 -1.5421243906021118 255 255 255
19.03351402282715 6.680922031402588 -0.4942582845687866 255 255 255
3.6474897861480713 2.4389116764068604 -0.26725760102272034 255 255 255
9.396383285522461 4.085687160491943 -0.8025414943695068 255 255 255
9.288424491882324 4.649198055267334 0.6640941500663757 255 255 255
18.729732513427734 6.694694519042969 0.2631010115146637 255 255 255
6.607446193695068 0.587165892124176 -1.5633420944213867 255 255 255
10.635211944580078 -3.306426763534546 -1.8127917051315308 255 255 255
10.340482711791992 4.515451431274414 0.29766592383384705 255 255 255
9.160507202148438 -2.564495325088501 -1.75409734249115 255 255 255
27.86152458190918 0.8576927781105042 -0.16822274029254913 255 255 255
3.838695526123047 2.63773775100708 -0.18586376309394836 255 255 255
24.2237606048584 -9.767827033996582 -0.2686041593551636 255 255 255
3.370666742324829 2.3827707767486572 -0.7890200018882751 255 255 255
10.434870719909668 -6.96757173538208 -0.39420872926712036 255 255 255
19.9785213470459 -7.094630718231201 -1.6337517499923706 255 255 255
6.008984565734863 4.9639153480529785 0.45397862792015076 255 255 255
11.263798713684082 5.517789840698242 -0.941551148891449 255 255 255
20.57171058654785 -9.285506248474121 0.31884804368019104 255 255 255
19.5692138671875 6.514622688293457 0.1679709404706955 255 255 255
4.168970584869385 2.21572208404541 -0.7308416962623596 255 255 255
7.546096324920654 -2.2132163047790527 -1.7821475267410278 255 255 255
21.534496307373047 2.782358169555664 -0.20198434591293335 255 255 255
9.173965454101562 4.073645114898682 -1.0536946058273315 255 255 255
7.945860862731934 1.5028067827224731 -0.19281598925590515 255 255 255
12.865922927856445 -0.1050044521689415 -0.9021589159965515 255 255 255
12.471877098083496 -0.531297504901886 -1.4667569398880005 255 255 255
55.054466247558594 -11.668888092041016 -0.936425507068634 255 255 255
13.79464054107666 -3.026901960372925 -1.7506015300750732 255 255 255
13.701754570007324 -7.464975833892822 -0.5754762887954712 255 255 255
34.36713409423828 -1.7648394107818604 -0.2583544850349426 255 255 255
7.091718673706055 0.11500325798988342 -1.7212588787078857 255 255 255
15.550227165222168 -2.8048813343048096 -1.6914499998092651 255 255 255
4.7635321617126465 2.1368324756622314 -1.3284322023391724 255 255 255
17.192737579345703 -3.3614492416381836 -1.659228801727295 255 255 255
7.145081043243408 1.2726786136627197 -1.3400652408599854 255 255 255
12.988146781921387 7.796378135681152 -0.6916482448577881 255 255 255
6.304608345031738 5.060197830200195 0.03570643439888954 255 255 255
10.767926216125488 -6.614560127258301 0.20250429213047028 255 255 255
23.268396377563477 -9.682625770568848 -0.16502906382083893 255 255 255
5.156222820281982 -3.4215002059936523 -1.3975106477737427 255 255 255
5.267723083496094 -3.4349517822265625 -1.3374669551849365 255 255 255
4.266751289367676 2.194552183151245 -0.4854452908039093 255 255 255
21.251447677612305 2.130077838897705 0.6557567119598389 255 255 255
6.221353530883789 5.111005783081055 -0.27552488446235657 255 255 255
21.00851058959961 -9.489006996154785 0.041270267218351364 255 255 255
14.402670860290527 -0.5088558793067932 -0.6437809467315674 255 255 255
4.76173734664917 2.0215492248535156 -1.2524992227554321 255 255 255
10.142972946166992 -2.4132702350616455 -1.7130262851715088 255 255 255
18.52743148803711 -6.921504974365234 -1.781315803527832 255 255 255
21.349109649658203 1.315148115158081 0.44725292921066284 255 255 255
21.364471435546875 -7.166463851928711 -1.606469988822937 255 255 255
12.326902389526367 -6.829946041107178 0.6956753134727478 255 255 255
5.588145732879639 -2.489954948425293 -0.9700036644935608 255 255 255
5.478076457977295 -2.506863594055176 -0.8916119933128357 255 255 255
3.8967738151550293 2.390655517578125 -0.27677279710769653 255 255 255
10.355504989624023 5.100681304931641 0.2525312602519989 255 255 255
10.134994506835938 -6.774106502532959 0.12961454689502716 255 255 255
15.197122573852539 9.103960037231445 -0.2709018886089325 255 255 255
7.178359508514404 1.7991656064987183 -1.545894742012024 255 255 255
6.428837299346924 5.125027179718018 -0.22750155627727509 255 255 255
9.224431991577148 0.9067596793174744 -0.6120256781578064 255 255 255
6.087406635284424 1.0999324321746826 -1.697482943534851 255 255 255
41.70067596435547 -13.991808891296387 1.714227557182312 255 255 255
7.779778480529785 -1.023175835609436 -1.7243025302886963 255 255 255
71.11063385009766 -7.234163284301758 2.14631724357605 255 255 255
8.84122371673584 1.9395534992218018 -0.43279656767845154 255 255 255
4.150844097137451 2.209002733230591 -0.8145501613616943 255 255 255
12.764425277709961 5.517096519470215 -0.2612592279911041 255 255 255
24.305871963500977 -6.724100589752197 -1.2166658639907837 255 255 255
21.378803253173828 1.6039408445358276 0.4273297190666199 255 255 255
9.877219200134277 -6.785971164703369 -0.8928104639053345 255 255 255
6.595054626464844 1.8904541730880737 -0.7384801506996155 255 255 255
5.314469337463379 -3.3047072887420654 -0.9237914681434631 255 255 255
9.409895896911621 3.9797143936157227 -1.0598770380020142 255 255 255
16.018592834472656 -7.973751068115234 -0.8158853650093079 255 255 255
5.664527416229248 -2.4041004180908203 -1.1807399988174438 255 255 255
18.02113151550293 4.830014228820801 0.4509173035621643 255 255 255
7.586243152618408 1.2202560901641846 -0.9968100786209106 255 255 255
15.0867280960083 8.43288803100586 0.11521290987730026 255 255 255
5.508913040161133 -2.383892297744751 -1.1415878534317017 255 255 255
10.600647926330566 -3.20245361328125 -1.6822535991668701 255 255 255
10.034331321716309 -3.1682982444763184 -1.7921948432922363 255 255 255
2.826042413711548 2.6303296089172363 -0.22982077300548553 255 255 255
14.991253852844238 4.169308185577393 0.13054883480072021 255 255 255
21.4051456451416 1.1618683338165283 0.7098766565322876 255 255 255
3.485978603363037 2.2392215728759766 -0.8949709534645081 255 255 255
3.5548603534698486 2.3887991905212402 -0.787621796131134 255 255 255
36.964263916015625 1.5314661264419556 0.6750638484954834 255 255 255
54.759849548339844 -4.472901821136475 0.721958339214325 255 255 255
10.174813270568848 7.265978813171387 0.5520493388175964 255 255 255
7.870694637298584 1.661789894104004 -0.1457674354314804 255 255 255
5.261582851409912 -3.133535385131836 -1.3113991022109985 255 255 255
5.228787899017334 -3.452850818634033 -1.3281266689300537 255 255 255
12.586220741271973 6.233580589294434 -0.6834917068481445 255 255 255
24.339468002319336 -9.717352867126465 -1.383544921875 255 255 255
10.050950050354004 -3.536452531814575 -1.791067123413086 255 255 255
6.4620361328125 -0.1853751242160797 -1.6822956800460815 255 255 255
13.245634078979492 -0.2019115835428238 -0.4491010010242462 255 255 255
19.513784408569336 6.49238920211792 0.2938601076602936 255 255 255
12.990545272827148 -7.32883358001709 -0.39810532331466675 255 255 255
6.211162567138672 1.7012073993682861 -1.6208215951919556 255 255 255
3.112978458404541 2.5647480487823486 -0.26615670323371887 255 255 255
6.111003398895264 5.079554557800293 0.11917956918478012 255 255 255
9.731473922729492 -2.663489818572998 -1.7795183658599854 255 255 255
16.592153549194336 7.229043960571289 -0.36526426672935486 255 255 255
45.12562942504883 -0.7800114154815674 1.250612735748291 255 255 255
3.251124858856201 2.4550931453704834 -0.5107932090759277 255 255 255
6.052431106567383 1.3576748371124268 -1.5541374683380127 255 255 255
13.859437942504883 0.5844208002090454 -1.4707326889038086 255 255 255
