ply
format ascii 1.0
element vertex 704
property float x
property float y
property float z
property uchar red
property uchar green
property uchar blue
end_header
23.256471633911133 0.2344483882188797 0.7940326929092407 255 255 255
23.243946075439453 0.19628272950649261 0.8734989762306213 255 255 255
23.12291717529297 0.3279660940170288 0.7820483446121216 255 255 255
23.031047821044922 0.3363499641418457 0.8225950598716736 255 255 255
23.009981155395508 0.423026442527771 0.838771641254425 255 255 255
22.494064331054688 0.4844241738319397 0.7974203824996948 255 255 255
22.627717971801758 0.5228432416915894 0.8954479694366455 255 255 255
22.45677947998047 0.621853232383728 0.854738712310791 255 255 255
21.526119232177734 0.6216291785240173 0.8095623850822449 255 255 255
21.60965919494629 0.6637199521064758 0.8301002979278564 255 255 255
21.656837463378906 0.7637202143669128 0.794873058795929 255 255 255
21.652143478393555 0.8875725865364075 0.8376857042312622 255 255 255
21.532625198364258 0.989982545375824 0.8297221064567566 255 255 255
21.49906349182129 0.9529777765274048 0.8397600054740906 255 255 255
21.418752670288086 1.0287151336669922 0.7494270205497742 255 255 255
21.458127975463867 1.1489834785461426 0.876287579536438 255 255 255
21.50895881652832 1.2484617233276367 0.8521581292152405 255 255 255
21.52157211303711 1.176863431930542 0.7671101689338684 255 255 255
21.384050369262695 1.3022918701171875 0.7922353148460388 255 255 255
20.996171951293945 1.3025051355361938 0.7265313267707825 255 255 255
20.88857650756836 1.3371363878250122 0.7737144231796265 255 255 255
20.90172004699707 1.48854660987854 0.7640021443367004 255 255 255
20.8919734954834 1.5575392246246338 0.7854632139205933 255 255 255
20.863187789916992 1.586279273033142 0.8402095437049866 255 255 255
20.737428665161133 1.564846158027649 0.7621145844459534 255 255 255
21.132917404174805 1.7245861291885376 0.7259397506713867 255 255 255
21.047054290771484 1.7415465116500854 0.6414836645126343 255 255 255
20.99848175048828 1.7725216150283813 0.7017796039581299 255 255 255
21.22835350036621 1.9076709747314453 0.7854176163673401 255 255 255
21.309661865234375 1.8682936429977417 0.6428919434547424 255 255 255
21.269207000732422 1.9630327224731445 0.6344372034072876 255 255 255
21.297536849975586 2.057713031768799 0.6935582756996155 255 255 255
21.351428985595703 2.0732805728912354 0.701373279094696 255 255 255
21.265653610229492 2.215762138366699 0.6627334952354431 255 255 255
21.384033203125 2.22127628326416 0.6721221208572388 255 255 255
21.521074295043945 2.276380777359009 0.6651363968849182 255 255 255
20.879844665527344 2.274444341659546 0.6889541745185852 255 255 255
20.775054931640625 2.389626979827881 0.6162249445915222 255 255 255
21.37663459777832 2.5655171871185303 0.7339135408401489 255 255 255
21.247488021850586 2.5706489086151123 0.6626833081245422 255 255 255
20.94647216796875 2.6159372329711914 0.729987621307373 255 255 255
21.025583267211914 2.5905723571777344 0.7536000609397888 255 255 255
20.90127182006836 2.665811777114868 0.642014741897583 255 255 255
21.0430908203125 2.760624647140503 0.7089818120002747 255 255 255
21.00909423828125 2.757124423980713 0.7551676034927368 255 255 255
21.193674087524414 2.9128165245056152 0.7145885825157166 255 255 255
21.10466766357422 2.985084056854248 0.736598789691925 255 255 255
21.495393753051758 3.104400396347046 0.6503369808197021 255 255 255
21.83428382873535 3.130291223526001 0.6683809757232666 255 255 255
18.895505905151367 2.776304006576538 0.5971857309341431 255 255 255
19.00439453125 2.903252124786377 0.5721834301948547 255 255 255
19.049203872680664 2.9406564235687256 0.6829153299331665 255 255 255
17.927490234375 2.951178550720215 0.6057555675506592 255 255 255
17.95461082458496 2.9231536388397217 0.6792415976524353 255 255 255
17.82999610900879 2.965686559677124 0.6905242204666138 255 255 255
17.633790969848633 2.880366086959839 0.6362601518630981 255 255 255
17.558799743652344 2.9365217685699463 0.5733001828193665 255 255 255
17.597095489501953 3.098292589187622 0.47674068808555603 255 255 255
18.21645164489746 3.1585514545440674 0.5990549325942993 255 255 255
18.274991989135742 3.387190818786621 0.6255217790603638 255 255 255
17.67042350769043 3.316037178039551 0.6236569881439209 255 255 255
17.68557357788086 3.2726006507873535 0.5554186105728149 255 255 255
17.546171188354492 3.3277792930603027 0.7173192501068115 255 255 255
17.51434898376465 3.3318111896514893 0.5452743172645569 255 255 255
17.275127410888672 3.324199676513672 0.5995175838470459 255 255 255
17.489707946777344 3.484835386276245 0.5921202301979065 255 255 255
18.3052921295166 3.6813015937805176 0.6656208634376526 255 255 255
17.851238250732422 3.645659923553467 0.513733983039856 255 255 255
17.75587272644043 3.7034752368927 0.5788600444793701 255 255 255
17.489675521850586 3.6286861896514893 0.5562900900840759 255 255 255
17.286380767822266 3.619739055633545 0.5529256463050842 255 255 255
17.240997314453125 3.753481864929199 0.6798197031021118 255 255 255
17.163721084594727 3.7012925148010254 0.5885159373283386 255 255 255
17.03351593017578 3.7657947540283203 0.585054874420166 255 255 255
17.02606201171875 3.839102029800415 0.6072772145271301 255 255 255
17.045944213867188 3.910740375518799 0.6356831789016724 255 255 255
17.004953384399414 3.922452211380005 0.5384336113929749 255 255 255
17.209712982177734 3.9434006214141846 0.6600049138069153 255 255 255
17.422748565673828 4.151020050048828 0.5988523960113525 255 255 255
17.417001724243164 4.1837239265441895 0.5091947913169861 255 255 255
17.587890625 4.352203845977783 0.6395629644393921 255 255 255
17.091815948486328 4.182560920715332 0.6295819282531738 255 255 255
17.24673080444336 4.33603048324585 0.5684394836425781 255 255 255
17.086048126220703 4.300477027893066 0.6518722772598267 255 255 255
14.935091018676758 3.790480852127075 0.6059484481811523 255 255 255
14.959607124328613 3.804088830947876 0.5071877241134644 255 255 255
14.925495147705078 3.9203200340270996 0.662446916103363 255 255 255
14.952544212341309 4.018568515777588 0.5931885242462158 255 255 255
17.67186737060547 4.732131004333496 0.6121911406517029 255 255 255
17.56108856201172 4.717500686645508 0.5905949473381042 255 255 255
17.655155181884766 4.8084306716918945 0.6582924127578735 255 255 255
17.540433883666992 4.794947624206543 0.6462839841842651 255 255 255
17.725669860839844 4.901261806488037 0.5898075103759766 255 255 255
17.84624671936035 5.059865474700928 0.7671427130699158 255 255 255
17.823991775512695 5.162839889526367 0.6632152795791626 255 255 255
17.786725997924805 5.073303699493408 0.691808819770813 255 255 255
17.80921745300293 5.149442672729492 0.551745593547821 255 255 255
17.78827476501465 5.251434326171875 0.5859658122062683 255 255 255
17.685510635375977 5.348540306091309 0.6059485077857971 255 255 255
14.84878158569336 4.466408729553223 0.5627942681312561 255 255 255
14.783353805541992 4.635446071624756 0.4313695430755615 255 255 255
14.85079288482666 4.6529083251953125 0.4784422516822815 255 255 255
14.912654876708984 4.598141670227051 0.6473780870437622 255 255 255
19.84603500366211 6.249885082244873 0.6575276255607605 255 255 255
19.679162979125977 6.265204906463623 0.6984987258911133 255 255 255
19.637054443359375 6.302280426025391 0.6898000836372375 255 255 255
19.47222137451172 6.337741374969482 0.669240415096283 255 255 255
19.43097496032715 6.385448455810547 0.7129442095756531 255 255 255
19.19049644470215 6.354536533355713 0.7001917362213135 255 255 255
19.149192810058594 6.409809589385986 0.6428635120391846 255 255 255
19.07236099243164 6.470993995666504 0.6818808913230896 255 255 255
19.011018753051758 6.466431140899658 0.7837984561920166 255 255 255
18.913259506225586 6.491067886352539 0.5691012144088745 255 255 255
18.816625595092773 6.48114538192749 0.6229544281959534 255 255 255
18.635601043701172 6.542868614196777 0.6069740056991577 255 255 255
18.60289764404297 6.540663242340088 0.7230689525604248 255 255 255
18.52151107788086 6.619937419891357 0.736223578453064 255 255 255
18.30086898803711 6.6638593673706055 0.6490493416786194 255 255 255
18.334497451782227 6.617985248565674 0.7011631727218628 255 255 255
18.18122673034668 6.675792217254639 0.6825807690620422 255 255 255
13.249408721923828 4.919824123382568 0.5082826018333435 255 255 255
18.023656845092773 6.74129581451416 0.6755778789520264 255 255 255
17.889894485473633 6.710626602172852 0.6079792976379395 255 255 255
17.766225814819336 6.8278279304504395 0.6017814874649048 255 255 255
17.71333885192871 6.83154821395874 0.6564961671829224 255 255 255
17.634672164916992 6.889176845550537 0.6781005859375 255 255 255
17.581756591796875 6.843423843383789 0.6599327325820923 255 255 255
17.411802291870117 6.7888264656066895 0.6148426532745361 255 255 255
13.269479751586914 5.33054780960083 0.5205387473106384 255 255 255
17.2873592376709 7.047207832336426 0.6535870432853699 255 255 255
17.18315315246582 6.941152572631836 0.5977042317390442 255 255 255
17.017778396606445 7.0752434730529785 0.6356664299964905 255 255 255
16.937604904174805 6.978358268737793 0.687161922454834 255 255 255
16.870901107788086 6.984688758850098 0.6262432932853699 255 255 255
16.943279266357422 7.002066135406494 0.6765351891517639 255 255 255
16.73922348022461 7.049144268035889 0.6697577834129333 255 255 255
16.596981048583984 7.166667938232422 0.6358777284622192 255 255 255
16.52638816833496 7.128726005554199 0.5893502831459045 255 255 255
16.435739517211914 7.126006603240967 0.6390684247016907 255 255 255
10.204513549804688 4.385896682739258 0.4325799345970154 255 255 255
10.057307243347168 4.428358554840088 0.4469943642616272 255 255 255
10.200923919677734 4.4755859375 0.4581517279148102 255 255 255
9.966035842895508 4.464693546295166 0.4402349591255188 255 255 255
10.076319694519043 4.547105312347412 0.5333060622215271 255 255 255
9.198607444763184 4.145787715911865 0.45584073662757874 255 255 255
9.260144233703613 4.230481147766113 0.4526200294494629 255 255 255
9.23936939239502 4.173422336578369 0.49356764554977417 255 255 255
9.218879699707031 4.268894672393799 0.4437374174594879 255 255 255
9.457218170166016 4.3399763107299805 0.38421422243118286 255 255 255
9.053436279296875 4.250115871429443 0.35555198788642883 255 255 255
9.40446662902832 4.548067092895508 0.4130132794380188 255 255 255
8.946307182312012 4.3258843421936035 0.4390905499458313 255 255 255
8.965030670166016 4.275719165802002 0.458820641040802 255 255 255
9.05028247833252 4.371611595153809 0.4921286106109619 255 255 255
8.994118690490723 4.397699356079102 0.5734259486198425 255 255 255
8.944145202636719 4.3448567390441895 0.5142455697059631 255 255 255
8.948448181152344 4.374953269958496 0.3922973573207855 255 255 255
8.856136322021484 4.512326717376709 0.4787778854370117 255 255 255
8.895648002624512 4.487020015716553 0.40514931082725525 255 255 255
8.915587425231934 4.5157246589660645 0.5356099605560303 255 255 255
8.884622573852539 4.507829189300537 0.44306883215904236 255 255 255
9.388395309448242 4.846349239349365 0.4373161494731903 255 255 255
9.069174766540527 4.685218811035156 0.4225408732891083 255 255 255
8.888580322265625 4.62788724899292 0.5291911363601685 255 255 255
8.924612998962402 4.760098457336426 0.37282538414001465 255 255 255
8.557351112365723 4.605246543884277 0.4074733853340149 255 255 255
8.726238250732422 4.530560493469238 0.42331552505493164 255 255 255
8.67990779876709 4.586852550506592 0.41583967208862305 255 255 255
8.705757141113281 4.707034111022949 0.3935993015766144 255 255 255
8.898475646972656 4.720025062561035 0.48908060789108276 255 255 255
9.067978858947754 4.9839935302734375 0.43941444158554077 255 255 255
8.655207633972168 4.889832973480225 0.43035316467285156 255 255 255
8.881756782531738 4.791567802429199 0.38184332847595215 255 255 255
8.930583953857422 5.045942306518555 0.4537162780761719 255 255 255
9.020084381103516 5.027328968048096 0.47526952624320984 255 255 255
8.989656448364258 5.018559455871582 0.41930830478668213 255 255 255
9.10860824584961 5.180984020233154 0.4264029264450073 255 255 255
9.054359436035156 5.123651504516602 0.4326866865158081 255 255 255
8.902658462524414 5.109871864318848 0.46983101963996887 255 255 255
8.950291633605957 5.20773983001709 0.41847944259643555 255 255 255
8.75595760345459 5.154760360717773 0.4044683277606964 255 255 255
8.92504596710205 5.1974263191223145 0.3742591440677643 255 255 255
8.804024696350098 5.199157238006592 0.3698280155658722 255 255 255
8.744819641113281 5.19149112701416 0.4173474609851837 255 255 255
8.955036163330078 5.299976348876953 0.4067121148109436 255 255 255
8.776820182800293 5.307065963745117 0.45115411281585693 255 255 255
8.764143943786621 5.320830345153809 0.434984028339386 255 255 255
8.756243705749512 5.408263206481934 0.4319130778312683 255 255 255
8.657543182373047 5.379876136779785 0.4070569574832916 255 255 255
9.35683822631836 5.708444595336914 0.46887093782424927 255 255 255
8.676790237426758 5.395270824432373 0.4860633611679077 255 255 255
9.369683265686035 5.843400955200195 0.4788309931755066 255 255 255
9.321298599243164 5.932486057281494 0.4588576853275299 255 255 255
9.213562965393066 5.894573211669922 0.4296238124370575 255 255 255
9.75359058380127 6.2729172706604 0.4089048504829407 255 255 255
10.416040420532227 6.7095513343811035 0.47164642810821533 255 255 255
10.341500282287598 6.71713399887085 0.5042331218719482 255 255 255
10.327335357666016 6.771697521209717 0.5470036268234253 255 255 255
10.243162155151367 6.728237628936768 0.44362688064575195 255 255 255
10.327330589294434 6.9008073806762695 0.44404473900794983 255 255 255
9.868603706359863 6.510828495025635 0.4959618151187897 255 255 255
9.496268272399902 6.44785213470459 0.48595207929611206 255 255 255
9.626701354980469 6.477845191955566 0.519629716873169 255 255 255
9.890030860900879 6.726881980895996 0.4878716468811035 255 255 255
10.477063179016113 7.120125770568848 0.5722444653511047 255 255 255
10.411067962646484 7.091737747192383 0.5199569463729858 255 255 255
10.307137489318848 7.149335861206055 0.5029098391532898 255 255 255
10.395965576171875 7.3078932762146 0.4905198812484741 255 255 255
10.426412582397461 7.384572505950928 0.5458550453186035 255 255 255
10.378110885620117 7.24010705947876 0.5491335391998291 255 255 255
15.919702529907227 11.337580680847168 0.644821047782898 255 255 255
9.997564315795898 7.059642791748047 0.4750903248786926 255 255 255
10.047850608825684 7.175879955291748 0.6229154467582703 255 255 255
10.073060035705566 7.17904806137085 0.49279868602752686 255 255 255
9.785978317260742 7.198838710784912 0.4661824107170105 255 255 255
6.664827823638916 4.851895332336426 0.38832950592041016 255 255 255
6.637396335601807 4.896279335021973 0.38039878010749817 255 255 255
6.8164167404174805 4.970168590545654 0.32861995697021484 255 255 255
6.923103332519531 5.095757007598877 0.36092594265937805 255 255 255
6.636757850646973 5.026003360748291 0.3740578889846802 255 255 255
6.509158134460449 4.962312698364258 0.4462411403656006 255 255 255
6.5278849601745605 4.999965667724609 0.46658825874328613 255 255 255
6.363284111022949 4.810620307922363 0.4615325629711151 255 255 255
6.357539176940918 4.908419132232666 0.42772483825683594 255 255 255
6.499733924865723 4.895331382751465 0.40407949686050415 255 255 255
6.319616317749023 4.954163551330566 0.35491520166397095 255 255 255
6.232988357543945 5.017589092254639 0.33515119552612305 255 255 255
6.406518459320068 5.100614547729492 0.36490398645401 255 255 255
6.33380126953125 4.992151737213135 0.4217046797275543 255 255 255
6.251854419708252 4.970903396606445 0.45790064334869385 255 255 255
6.252647876739502 5.097119331359863 0.36352699995040894 255 255 255
6.341392517089844 5.080992221832275 0.3557978868484497 255 255 255
6.316776275634766 5.072657108306885 0.42251884937286377 255 255 255
6.17856502532959 4.9221696853637695 0.3434191942214966 255 255 255
6.187941074371338 4.973388671875 0.4266280233860016 255 255 255
6.132413864135742 5.050540924072266 0.47485971450805664 255 255 255
6.07252311706543 4.94079065322876 0.4214760661125183 255 255 255
6.107426643371582 4.958920001983643 0.3303442895412445 255 255 255
6.032041072845459 5.057044982910156 0.36320626735687256 255 255 255
6.056613922119141 5.173068046569824 0.3920883536338806 255 255 255
6.135685920715332 5.167628288269043 0.3694826662540436 255 255 255
5.902225971221924 5.200884819030762 0.3241032063961029 255 255 255
6.068521022796631 5.210679054260254 0.40193861722946167 255 255 255
6.068304538726807 5.280808925628662 0.35596349835395813 255 255 255
6.050174236297607 5.361090660095215 0.36112961173057556 255 255 255
6.161778926849365 5.335300445556641 0.4310872554779053 255 255 255
6.048196792602539 5.277052879333496 0.39635106921195984 255 255 255
5.957045078277588 5.27337646484375 0.38834935426712036 255 255 255
5.889740467071533 5.341647624969482 0.44439831376075745 255 255 255
5.988992691040039 5.319942951202393 0.3941982686519623 255 255 255
6.033769130706787 5.5456862449646 0.42008739709854126 255 255 255
5.967790603637695 5.467472553253174 0.3674840033054352 255 255 255
7.385655879974365 6.837050914764404 0.44603976607322693 255 255 255
7.326380252838135 6.701229572296143 0.42253586649894714 255 255 255
6.007785320281982 5.58651876449585 0.2873784601688385 255 255 255
5.937681674957275 5.537667274475098 0.43408623337745667 255 255 255
6.955048084259033 6.404377460479736 0.5016028881072998 255 255 255
6.943143367767334 6.534229755401611 0.4430913031101227 255 255 255
6.91642951965332 6.563826560974121 0.3641572892665863 255 255 255
6.778931140899658 6.576093673706055 0.39254358410835266 255 255 255
5.738031387329102 5.427774906158447 0.3809097707271576 255 255 255
6.774189472198486 6.482329368591309 0.41549721360206604 255 255 255
11.484028816223145 -8.198263168334961 0.49706053733825684 255 255 255
11.60567855834961 -8.229970932006836 0.4371751844882965 255 255 255
11.183051109313965 -7.90540075302124 0.5331626534461975 255 255 255
11.239089012145996 -7.883582592010498 0.5995028614997864 255 255 255
11.238653182983398 -7.817572116851807 0.5651969909667969 255 255 255
11.339983940124512 -7.8325724601745605 0.5214793086051941 255 255 255
10.561921119689941 -7.287700653076172 0.49376410245895386 255 255 255
11.615248680114746 -7.865258693695068 0.6229708194732666 255 255 255
11.56257438659668 -7.733286380767822 0.5866612195968628 255 255 255
11.484823226928711 -7.701540946960449 0.5159226655960083 255 255 255
11.52893352508545 -7.654491424560547 0.5120813250541687 255 255 255
11.552145004272461 -7.661984443664551 0.5612983107566833 255 255 255
12.61331558227539 -8.305074691772461 0.5790488719940186 255 255 255
12.464622497558594 -8.201629638671875 0.5302404165267944 255 255 255
12.20853042602539 -7.922557353973389 0.5557950735092163 255 255 255
12.073112487792969 -7.782891750335693 0.589070737361908 255 255 255
11.91065788269043 -7.667768955230713 0.5483428239822388 255 255 255
11.733617782592773 -7.503638744354248 0.5402881503105164 255 255 255
11.47535228729248 -7.388228893280029 0.5325255393981934 255 255 255
11.464327812194824 -7.229921340942383 0.4773120880126953 255 255 255
11.57015323638916 -7.243773460388184 0.5548582077026367 255 255 255
12.8160400390625 -7.989716529846191 0.5441492795944214 255 255 255
12.169258117675781 -7.579268932342529 0.5312308669090271 255 255 255
12.122786521911621 -7.55100154876709 0.47208794951438904 255 255 255
11.69566535949707 -7.098926067352295 0.538255512714386 255 255 255
11.9278564453125 -7.261950969696045 0.5676772594451904 255 255 255
11.89445972442627 -7.205981731414795 0.5157554745674133 255 255 255
12.688936233520508 -7.491203784942627 0.452593058347702 255 255 255
12.642173767089844 -7.590850830078125 0.5251280069351196 255 255 255
12.606345176696777 -7.475560665130615 0.5607401728630066 255 255 255
12.09511661529541 -7.104005336761475 0.4535110294818878 255 255 255
12.762142181396484 -7.448618412017822 0.5018337368965149 255 255 255
12.68974494934082 -7.346757411956787 0.6265472173690796 255 255 255
12.599111557006836 -7.2036452293396 0.47909292578697205 255 255 255
12.402268409729004 -7.072404861450195 0.5106326937675476 255 255 255
12.279193878173828 -7.025166988372803 0.5961531400680542 255 255 255
12.239136695861816 -6.9726667404174805 0.45837244391441345 255 255 255
12.237288475036621 -6.831709384918213 0.49203115701675415 255 255 255
12.241222381591797 -6.811333656311035 0.6064967513084412 255 255 255
12.481520652770996 -6.8433098793029785 0.44629359245300293 255 255 255
12.880377769470215 -7.174805641174316 0.5488091111183167 255 255 255
12.61790943145752 -7.029382705688477 0.5459535717964172 255 255 255
12.561580657958984 -6.825965881347656 0.5060669779777527 255 255 255
12.780379295349121 -6.950906753540039 0.565039873123169 255 255 255
12.964666366577148 -6.996196269989014 0.6561290621757507 255 255 255
13.203631401062012 -7.11947774887085 0.5329343676567078 255 255 255
13.130684852600098 -6.82919979095459 0.4844755232334137 255 255 255
13.165914535522461 -6.959906578063965 0.4844774305820465 255 255 255
13.172816276550293 -6.756585597991943 0.54593825340271 255 255 255
13.17121696472168 -6.8097052574157715 0.5814468860626221 255 255 255
13.198936462402344 -6.744227886199951 0.5256155133247375 255 255 255
13.247827529907227 -6.692694664001465 0.4851337671279907 255 255 255
13.197129249572754 -6.673656463623047 0.5727062821388245 255 255 255
14.72722053527832 -7.457577705383301 0.5880988836288452 255 255 255
12.859716415405273 -6.471998691558838 0.5129429697990417 255 255 255
14.077704429626465 -6.914456844329834 0.5612008571624756 255 255 255
14.560956001281738 -7.087245941162109 0.6084233522415161 255 255 255
13.948623657226562 -6.73867654800415 0.528871476650238 255 255 255
13.499922752380371 -6.443361282348633 0.5161228775978088 255 255 255
14.4164400100708 -6.888355731964111 0.6069812178611755 255 255 255
14.227679252624512 -6.799935340881348 0.5008923411369324 255 255 255
14.185129165649414 -6.646646499633789 0.5726597309112549 255 255 255
14.267999649047852 -6.623587131500244 0.4912232756614685 255 255 255
14.331052780151367 -6.593447685241699 0.5928114652633667 255 255 255
14.425853729248047 -6.4982500076293945 0.5795279741287231 255 255 255
14.436969757080078 -6.574865818023682 0.62163245677948 255 255 255
14.37649917602539 -6.588019371032715 0.5398136377334595 255 255 255
15.026371002197266 -6.762971878051758 0.6070906519889832 255 255 255
14.254205703735352 -6.4542646408081055 0.5829798579216003 255 255 255
14.213459014892578 -6.340330600738525 0.589488685131073 255 255 255
14.184853553771973 -6.248325824737549 0.524901807308197 255 255 255
14.227764129638672 -6.24540901184082 0.5299753546714783 255 255 255
14.207869529724121 -6.131020545959473 0.5654424428939819 255 255 255
20.852798461914062 -8.96280288696289 0.7258381843566895 255 255 255
20.91568374633789 -8.871192932128906 0.7104787826538086 255 255 255
20.963756561279297 -8.826152801513672 0.6938464045524597 255 255 255
20.714309692382812 -8.65118408203125 0.7208039164543152 255 255 255
20.750551223754883 -8.578093528747559 0.6845081448554993 255 255 255
20.685134887695312 -8.561117172241211 0.7186788320541382 255 255 255
20.70772933959961 -8.441669464111328 0.7281432747840881 255 255 255
21.6428279876709 -8.812076568603516 0.667262077331543 255 255 255
21.762327194213867 -8.750312805175781 0.7456251978874207 255 255 255
21.89083480834961 -8.779160499572754 0.6968011856079102 255 255 255
22.069223403930664 -8.637663841247559 0.7964476346969604 255 255 255
22.124666213989258 -8.648028373718262 0.6444078087806702 255 255 255
22.250579833984375 -8.584737777709961 0.7820475697517395 255 255 255
22.219341278076172 -8.567816734313965 0.7722132802009583 255 255 255
22.358333587646484 -8.541348457336426 0.6910360455513 255 255 255
22.294410705566406 -8.422820091247559 0.6971006393432617 255 255 255
23.47764015197754 -8.754892349243164 0.7497690320014954 255 255 255
23.61033058166504 -8.832147598266602 0.7245668768882751 255 255 255
23.532773971557617 -8.706019401550293 0.7946504354476929 255 255 255
23.450674057006836 -8.55339527130127 0.7487093806266785 255 255 255
23.641202926635742 -8.509476661682129 0.7313322424888611 255 255 255
24.55309295654297 -8.884284019470215 0.8246412873268127 255 255 255
41.35791778564453 -14.65085506439209 1.174079179763794 255 255 255
41.339908599853516 -14.523702621459961 1.264449119567871 255 255 255
41.368194580078125 -14.419621467590332 1.1778665781021118 255 255 255
41.5603141784668 -14.341659545898438 1.309018611907959 255 255 255
41.68622589111328 -14.143255233764648 1.1762977838516235 255 255 255
41.86261749267578 -14.211738586425781 1.2057708501815796 255 255 255
41.9757080078125 -14.108953475952148 1.2420072555541992 255 255 255
53.68527603149414 -17.80316925048828 1.6107860803604126 255 255 255
56.10193634033203 -18.52121925354004 1.5444321632385254 255 255 255
56.49089050292969 -18.387929916381836 1.5206210613250732 255 255 255
62.29175567626953 -19.97091293334961 1.7914875745773315 255 255 255
62.84878921508789 -20.05815315246582 1.7149382829666138 255 255 255
62.582820892333984 -19.746898651123047 1.6942224502563477 255 255 255
78.1468734741211 -14.258505821228027 2.046149492263794 255 255 255
77.82760620117188 -13.89816951751709 2.095283031463623 255 255 255
76.64427185058594 -13.181718826293945 2.010669469833374 255 255 255
75.80624389648438 -12.842388153076172 2.0751893520355225 255 255 255
76.06395721435547 -12.742390632629395 1.9252252578735352 255 255 255
75.88600158691406 -12.413816452026367 1.96036958694458 255 255 255
75.88066101074219 -12.310888290405273 2.0371367931365967 255 255 255
75.90423583984375 -12.055493354797363 1.9503759145736694 255 255 255
75.76242065429688 -11.783324241638184 1.9099763631820679 255 255 255
76.00808715820312 -11.513948440551758 2.0040221214294434 255 255 255
75.91551208496094 -11.196619033813477 2.03845477104187 255 255 255
75.94900512695312 -10.959712982177734 1.9802616834640503 255 255 255
76.22779083251953 -10.901693344116211 1.8924593925476074 255 255 255
76.27896118164062 -10.694486618041992 1.886218547821045 255 255 255
76.09479522705078 -10.547818183898926 1.9102634191513062 255 255 255
76.31880187988281 -10.275726318359375 1.9772257804870605 255 255 255
76.58807373046875 -10.046521186828613 2.0216386318206787 255 255 255
76.61620330810547 -9.823502540588379 1.9659022092819214 255 255 255
76.53313446044922 -9.516196250915527 2.0565683841705322 255 255 255
76.5729751586914 -9.453953742980957 1.9934813976287842 255 255 255
76.75385284423828 -9.333544731140137 1.9513862133026123 255 255 255
76.70550537109375 -8.991869926452637 1.8951719999313354 255 255 255
73.822021484375 -8.365063667297363 2.0114879608154297 255 255 255
70.55362701416016 -7.572605133056641 1.8551509380340576 255 255 255
69.16548156738281 -7.197997570037842 1.8362847566604614 255 255 255
68.6749038696289 -7.069489002227783 1.7739406824111938 255 255 255
68.6553955078125 -6.726081848144531 1.7728168964385986 255 255 255
68.71601104736328 -6.626733779907227 1.7954332828521729 255 255 255
64.21549224853516 -5.938957691192627 1.6714041233062744 255 255 255
63.00177764892578 -5.628472328186035 1.6081782579421997 255 255 255
60.21023178100586 -4.971682548522949 1.5326411724090576 255 255 255
58.66154861450195 -4.623046398162842 1.6043204069137573 255 255 255
57.583553314208984 -4.306622505187988 1.4625718593597412 255 255 255
57.46033477783203 -4.0792107582092285 1.558673620223999 255 255 255
55.892120361328125 -3.8037655353546143 1.5096145868301392 255 255 255
54.91752624511719 -3.6636033058166504 1.5175191164016724 255 255 255
54.632686614990234 -3.48591685295105 1.4404634237289429 255 255 255
54.553001403808594 -3.3299922943115234 1.5014761686325073 255 255 255
54.764190673828125 -3.181748390197754 1.5537010431289673 255 255 255
54.71023178100586 -3.0863492488861084 1.506273627281189 255 255 255
54.77753829956055 -2.7479248046875 1.4077346324920654 255 255 255
54.797203063964844 -2.5988075733184814 1.4890297651290894 255 255 255
54.85308074951172 -2.5061752796173096 1.5135996341705322 255 255 255
54.838600158691406 -2.340362071990967 1.4638683795928955 255 255 255
54.9803466796875 -2.254192352294922 1.424448847770691 255 255 255
55.0311393737793 -2.121567487716675 1.5349172353744507 255 255 255
54.91119384765625 -1.9041475057601929 1.4350627660751343 255 255 255
55.05699157714844 -1.7602040767669678 1.4510524272918701 255 255 255
45.08503341674805 -1.0547730922698975 1.3354060649871826 255 255 255
44.48598098754883 -0.9606771469116211 1.222279667854309 255 255 255
43.994136810302734 -0.8955773711204529 1.2484371662139893 255 255 255
43.833473205566406 -0.7509656548500061 1.2433269023895264 255 255 255
43.79662322998047 -0.6340687274932861 1.2043792009353638 255 255 255
42.34345245361328 -0.4648561477661133 1.1463526487350464 255 255 255
41.80057144165039 -0.4654301106929779 1.1215850114822388 255 255 255
41.422183990478516 -0.18111585080623627 1.1778062582015991 255 255 255
35.299827575683594 -0.07774358987808228 1.0362998247146606 255 255 255
40.57616424560547 -0.08699391037225723 1.129445195198059 255 255 255
35.2396354675293 0.11746250092983246 0.9806451201438904 255 255 255
39.71355438232422 0.23655274510383606 1.1219052076339722 255 255 255
39.83584976196289 0.3652261793613434 1.1270567178726196 255 255 255
34.66709899902344 0.39420342445373535 0.9714645147323608 255 255 255
34.20774841308594 0.5545564889907837 1.0160667896270752 255 255 255
34.445072174072266 0.6347613334655762 1.0337814092636108 255 255 255
34.52130889892578 0.7022643089294434 1.0709203481674194 255 255 255
34.43598937988281 0.7298949360847473 1.0583522319793701 255 255 255
22.995018005371094 0.5967272520065308 0.6746812462806702 255 255 255
22.764734268188477 0.5604267120361328 0.7229567170143127 255 255 255
23.039628982543945 0.7600528001785278 0.7143588662147522 255 255 255
23.167909622192383 0.8313313126564026 0.7194464802742004 255 255 255
21.687095642089844 0.7954878807067871 0.7074369192123413 255 255 255
21.730918884277344 0.7665205597877502 0.708591639995575 255 255 255
21.58999252319336 0.9486480355262756 0.7343781590461731 255 255 255
21.520872116088867 0.9851403832435608 0.6696617603302002 255 255 255
21.385133743286133 1.1094595193862915 0.738869309425354 255 255 255
21.401575088500977 0.9803419709205627 0.6682825684547424 255 255 255
21.648460388183594 1.2985882759094238 0.6341698169708252 255 255 255
21.331918716430664 1.1794546842575073 0.6999965906143188 255 255 255
21.04865074157715 1.1771167516708374 0.7256880402565002 255 255 255
21.21401596069336 1.2860921621322632 0.7131062150001526 255 255 255
21.106639862060547 1.3335540294647217 0.624054491519928 255 255 255
21.0616397857666 1.4779726266860962 0.6851382851600647 255 255 255
21.09785270690918 1.4994481801986694 0.6675047874450684 255 255 255
21.497568130493164 1.6042509078979492 0.729265570640564 255 255 255
20.819887161254883 1.666142463684082 0.47217845916748047 255 255 255
20.919179916381836 1.7946110963821411 0.5625848770141602 255 255 255
21.272907257080078 1.8013253211975098 0.48613348603248596 255 255 255
21.335540771484375 1.9276924133300781 0.47380030155181885 255 255 255
21.49015235900879 1.9687106609344482 0.5000371932983398 255 255 255
21.37883949279785 1.9691122770309448 0.6054112315177917 255 255 255
21.224668502807617 2.0785410404205322 0.5275692939758301 255 255 255
21.131187438964844 2.1288840770721436 0.5313290357589722 255 255 255
21.194921493530273 2.1302239894866943 0.5475119948387146 255 255 255
21.252788543701172 2.3048651218414307 0.475455641746521 255 255 255
21.19040298461914 2.351637363433838 0.5883011817932129 255 255 255
21.67055320739746 2.4299967288970947 0.5599502921104431 255 255 255
21.408781051635742 2.486345052719116 0.5848674774169922 255 255 255
21.484230041503906 2.519185781478882 0.46385830640792847 255 255 255
21.571577072143555 2.551447629928589 0.5804029107093811 255 255 255
21.514238357543945 2.7010369300842285 0.48069003224372864 255 255 255
21.45130729675293 2.6678240299224854 0.4951103925704956 255 255 255
21.27363395690918 2.849240303039551 0.5718639492988586 255 255 255
21.42403221130371 2.7560696601867676 0.5217822194099426 255 255 255
21.161840438842773 2.8523714542388916 0.4297108054161072 255 255 255
21.520509719848633 3.037686824798584 0.6101230382919312 255 255 255
21.61844825744629 3.0695767402648926 0.49311426281929016 255 255 255
21.58784294128418 3.128171443939209 0.6127048134803772 255 255 255
18.509336471557617 2.797353744506836 0.46834447979927063 255 255 255
18.735565185546875 2.8526952266693115 0.44866418838500977 255 255 255
18.935569763183594 2.8484139442443848 0.46142151951789856 255 255 255
18.809988021850586 2.956620216369629 0.4153538644313812 255 255 255
17.75295066833496 2.814509391784668 0.5782851576805115 255 255 255
17.748043060302734 2.9038846492767334 0.4242401421070099 255 255 255
17.668981552124023 2.920287847518921 0.47122424840927124 255 255 255
17.777904510498047 3.0094635486602783 0.47821810841560364 255 255 255
17.91077423095703 3.111978054046631 0.48611947894096375 255 255 255
17.654136657714844 3.1128997802734375 0.38538557291030884 255 255 255
17.773509979248047 3.171267032623291 0.4970782399177551 255 255 255
18.621417999267578 3.2802624702453613 0.4829385578632355 255 255 255
17.604820251464844 3.2403106689453125 0.43059223890304565 255 255 255
17.62158966064453 3.3561553955078125 0.43493199348449707 255 255 255
18.27898406982422 3.453735828399658 0.5030414462089539 255 255 255
18.247390747070312 3.6289892196655273 0.4505513906478882 255 255 255
18.284799575805664 3.511730670928955 0.45382288098335266 255 255 255
18.159603118896484 3.6046338081359863 0.550807774066925 255 255 255
18.113914489746094 3.661022663116455 0.4293381869792938 255 255 255
17.722076416015625 3.6658031940460205 0.5028073787689209 255 255 255
17.687395095825195 3.7420458793640137 0.5162772536277771 255 255 255
17.483272552490234 3.6267316341400146 0.5070558190345764 255 255 255
17.129365921020508 3.635483980178833 0.4461815059185028 255 255 255
17.254087448120117 3.829212188720703 0.4706977605819702 255 255 255
17.446863174438477 3.797769069671631 0.4897305965423584 255 255 255
17.20730972290039 3.7883408069610596 0.40364059805870056 255 255 255
16.9787654876709 3.859063148498535 0.44665277004241943 255 255 255
17.15407371520996 3.904989719390869 0.46811529994010925 255 255 255
17.22098159790039 3.931246519088745 0.44753697514533997 255 255 255
16.98739242553711 3.9453883171081543 0.4322948455810547 255 255 255
16.9459285736084 4.056931495666504 0.4365064203739166 255 255 255
16.895082473754883 4.139713764190674 0.44123178720474243 255 255 255
17.0401554107666 4.222923278808594 0.44411978125572205 255 255 255
17.041648864746094 4.197860240936279 0.3987923860549927 255 255 255
17.076183319091797 4.402013301849365 0.47017502784729004 255 255 255
14.973237991333008 3.792046308517456 0.4073482155799866 255 255 255
15.06460189819336 3.9088921546936035 0.442402184009552 255 255 255
15.057653427124023 3.9512569904327393 0.40326955914497375 255 255 255
14.870789527893066 3.962338924407959 0.40101513266563416 255 255 255
14.907509803771973 3.9104292392730713 0.448569655418396 255 255 255
17.743682861328125 4.761813640594482 0.4928797483444214 255 255 255
17.7288875579834 4.822463035583496 0.47651758790016174 255 255 255
17.596452713012695 4.794430732727051 0.4748653471469879 255 255 255
17.322477340698242 4.858187198638916 0.4731866419315338 255 255 255
17.59370994567871 4.9858503341674805 0.47233012318611145 255 255 255
17.780302047729492 5.06742525100708 0.492136687040329 255 255 255
17.207735061645508 4.922724723815918 0.39638808369636536 255 255 255
17.221628189086914 5.030133247375488 0.4389953315258026 255 255 255
17.235225677490234 5.20041036605835 0.5139119625091553 255 255 255
14.887884140014648 4.48599100112915 0.3662899136543274 255 255 255
14.848980903625488 4.398712635040283 0.4503384232521057 255 255 255
14.895838737487793 4.492993354797363 0.3018060624599457 255 255 255
17.632247924804688 5.385319709777832 0.4954719841480255 255 255 255
19.94877815246582 6.207764625549316 0.43613383173942566 255 255 255
19.78866958618164 6.303861618041992 0.5956526398658752 255 255 255
19.681962966918945 6.207405090332031 0.518281877040863 255 255 255
19.710216522216797 6.33359432220459 0.5587990283966064 255 255 255
19.49137306213379 6.294867515563965 0.4937606453895569 255 255 255
19.385692596435547 6.304514408111572 0.5210438370704651 255 255 255
19.243507385253906 6.319396495819092 0.5497059226036072 255 255 255
19.191564559936523 6.442687511444092 0.5249011516571045 255 255 255
19.207122802734375 6.453780174255371 0.4422839283943176 255 255 255
18.925582885742188 6.4117207527160645 0.43311047554016113 255 255 255
18.76813507080078 6.397960662841797 0.4914889335632324 255 255 255
18.74618148803711 6.4748992919921875 0.5385242700576782 255 255 255
18.60089683532715 6.5000996589660645 0.49106040596961975 255 255 255
18.558931350708008 6.587231636047363 0.49374645948410034 255 255 255
18.359874725341797 6.6170477867126465 0.458357036113739 255 255 255
18.417396545410156 6.656248092651367 0.47359922528266907 255 255 255
18.374853134155273 6.612813949584961 0.503125786781311 255 255 255
18.222875595092773 6.7099809646606445 0.4435756802558899 255 255 255
18.10943031311035 6.700565814971924 0.4550211727619171 255 255 255
17.968538284301758 6.776420593261719 0.5521541833877563 255 255 255
13.094766616821289 4.853403568267822 0.40186670422554016 255 255 255
12.946619987487793 4.936367034912109 0.4017510414123535 255 255 255
17.718181610107422 6.774397373199463 0.529776930809021 255 255 255
17.540618896484375 6.790685653686523 0.5029048323631287 255 255 255
17.506980895996094 6.9235711097717285 0.49493369460105896 255 255 255
17.425830841064453 6.858753681182861 0.5178394913673401 255 255 255
13.160511016845703 5.204603672027588 0.42973265051841736 255 255 255
17.280147552490234 6.906551837921143 0.4855942130088806 255 255 255
17.158994674682617 7.075491428375244 0.6137775182723999 255 255 255
12.618292808532715 5.1265153884887695 0.4153522253036499 255 255 255
12.462790489196777 5.188527584075928 0.4210359752178192 255 255 255
16.930463790893555 6.944948196411133 0.43534576892852783 255 255 255
16.83758544921875 6.9340434074401855 0.4103635251522064 255 255 255
10.018799781799316 4.303699016571045 0.40733546018600464 255 255 255
10.092885971069336 4.250825881958008 0.36951151490211487 255 255 255
10.067737579345703 4.243938446044922 0.33420252799987793 255 255 255
9.89841365814209 4.291574954986572 0.34358716011047363 255 255 255
9.818182945251465 4.282918453216553 0.4121672809123993 255 255 255
9.85512638092041 4.3455328941345215 0.4880516231060028 255 255 255
9.919532775878906 4.388184070587158 0.35649457573890686 255 255 255
9.75147819519043 4.414655685424805 0.31481143832206726 255 255 255
9.878110885620117 4.515629291534424 0.40827029943466187 255 255 255
9.231500625610352 4.3114399909973145 0.3417190611362457 255 255 255
9.283830642700195 4.1948065757751465 0.31359001994132996 255 255 255
9.224991798400879 4.363752841949463 0.39590317010879517 255 255 255
9.193934440612793 4.2118306159973145 0.3649580478668213 255 255 255
9.301371574401855 4.311145782470703 0.2946658432483673 255 255 255
9.225879669189453 4.371884822845459 0.44170713424682617 255 255 255
9.159937858581543 4.334706783294678 0.3898756206035614 255 255 255
9.182557106018066 4.379209041595459 0.3045054078102112 255 255 255
9.008523941040039 4.312853813171387 0.3900097906589508 255 255 255
9.706329345703125 4.605108261108398 0.40002238750457764 255 255 255
9.23463249206543 4.545064926147461 0.39414235949516296 255 255 255
9.226767539978027 4.503930568695068 0.4394938349723816 255 255 255
9.264963150024414 4.597426414489746 0.3033292591571808 255 255 255
9.207181930541992 4.573348522186279 0.5029354095458984 255 255 255
8.93767261505127 4.448863983154297 0.3429165184497833 255 255 255
9.152116775512695 4.547348976135254 0.34842175245285034 255 255 255
9.714574813842773 5.020616054534912 0.3347817361354828 255 255 255
8.885995864868164 4.5661725997924805 0.40658122301101685 255 255 255
8.92527961730957 4.610689640045166 0.36081498861312866 255 255 255
8.909849166870117 4.73291015625 0.37377044558525085 255 255 255
8.8470458984375 4.657222270965576 0.4598264694213867 255 255 255
8.711979866027832 4.5931925773620605 0.35027891397476196 255 255 255
8.616368293762207 4.577530384063721 0.38975295424461365 255 255 255
8.697365760803223 4.6871137619018555 0.4238659143447876 255 255 255
8.713933944702148 4.685239315032959 0.35466039180755615 255 255 255
8.705086708068848 4.65092134475708 0.3832044303417206 255 255 255
15.175161361694336 8.233695983886719 0.4802493155002594 255 255 255
8.646154403686523 4.810477256774902 0.42784520983695984 255 255 255
15.151276588439941 8.416375160217285 0.40138673782348633 255 255 255
9.036090850830078 5.176107406616211 0.35313618183135986 255 255 255
9.112183570861816 5.165815353393555 0.3767768144607544 255 255 255
9.334904670715332 5.344900131225586 0.2836362421512604 255 255 255
9.143736839294434 5.3057332038879395 0.32856079936027527 255 255 255
9.252669334411621 5.376402378082275 0.2879321277141571 255 255 255
9.097899436950684 5.286503314971924 0.30953484773635864 255 255 255
9.071483612060547 5.332559585571289 0.473415344953537 255 255 255
9.668609619140625 5.730793476104736 0.37268033623695374 255 255 255
9.502908706665039 5.515605449676514 0.3069286048412323 255 255 255
9.334236145019531 5.645116329193115 0.42094555497169495 255 255 255
9.306093215942383 5.6707868576049805 0.37976107001304626 255 255 255
9.548635482788086 5.8501691818237305 0.3169228434562683 255 255 255
9.60730266571045 5.854866027832031 0.35325461626052856 255 255 255
9.522768020629883 5.869317531585693 0.3057449758052826 255 255 255
9.152276039123535 5.7244977951049805 0.3487107753753662 255 255 255
9.313100814819336 5.879351615905762 0.41370415687561035 255 255 255
9.279050827026367 5.804994106292725 0.3584488332271576 255 255 255
9.177815437316895 5.891423225402832 0.42146483063697815 255 255 255
9.25318431854248 5.805342197418213 0.29319801926612854 255 255 255
9.11280632019043 5.861293315887451 0.4257473349571228 255 255 255
9.183059692382812 5.933292388916016 0.22413384914398193 255 255 255
9.441916465759277 6.183074951171875 0.38178783655166626 255 255 255
9.293157577514648 6.052903652191162 0.4786249101161957 255 255 255
9.519797325134277 6.236937999725342 0.43324050307273865 255 255 255
9.505541801452637 6.259021759033203 0.4569631516933441 255 255 255
15.677694320678711 10.376893043518066 0.4248126745223999 255 255 255
15.78898811340332 10.403331756591797 0.4324263334274292 255 255 255
15.871782302856445 10.668074607849121 0.635723888874054 255 255 255
15.80986499786377 10.73222827911377 0.41545525193214417 255 255 255
15.7925386428833 10.68747329711914 0.47862541675567627 255 255 255
10.274361610412598 7.070892810821533 0.43453001976013184 255 255 255
15.894669532775879 10.847153663635254 0.49147123098373413 255 255 255
10.244880676269531 7.106389999389648 0.33582672476768494 255 255 255
10.170509338378906 7.136125087738037 0.3825317621231079 255 255 255
15.960379600524902 11.304380416870117 0.4935726821422577 255 255 255
6.875673294067383 4.87165641784668 0.2631781995296478 255 255 255
16.02533721923828 11.423810958862305 0.6163421273231506 255 255 255
10.04509162902832 7.181908130645752 0.37131160497665405 255 255 255
6.625774383544922 4.81473970413208 0.3575550317764282 255 255 255
6.864719867706299 5.0454840660095215 0.31641584634780884 255 255 255
6.567812919616699 4.75899076461792 0.3258165121078491 255 255 255
6.501354694366455 4.82015323638916 0.40913453698158264 255 255 255
6.596418857574463 4.8330206871032715 0.41363778710365295 255 255 255
6.465332508087158 4.875434398651123 0.3330043852329254 255 255 255
6.396446704864502 4.883499622344971 0.2772994935512543 255 255 255
6.484519958496094 4.87090539932251 0.29871758818626404 255 255 255
6.490549564361572 4.958108425140381 0.3628411889076233 255 255 255
6.522338390350342 4.956602573394775 0.34512749314308167 255 255 255
6.367528438568115 4.952678203582764 0.33913764357566833 255 255 255
6.308885097503662 4.948835372924805 0.3064289093017578 255 255 255
6.260277271270752 4.92671537399292 0.3038429319858551 255 255 255
6.355329513549805 4.893356800079346 0.23838917911052704 255 255 255
6.3021063804626465 4.944876194000244 0.3686506748199463 255 255 255
6.369649410247803 4.972685813903809 0.26905325055122375 255 255 255
6.342583179473877 5.028745651245117 0.3225741386413574 255 255 255
6.289921760559082 5.156864643096924 0.29793062806129456 255 255 255
6.187519073486328 5.059149265289307 0.35578057169914246 255 255 255
6.263810157775879 5.020345211029053 0.31749212741851807 255 255 255
6.361563682556152 5.134148120880127 0.3158460259437561 255 255 255
6.27299165725708 5.117840766906738 0.20005851984024048 255 255 255
6.069829940795898 5.044870853424072 0.3472144305706024 255 255 255
6.053684711456299 4.9614057540893555 0.28014329075813293 255 255 255
6.023691654205322 5.143959999084473 0.37361806631088257 255 255 255
6.071948528289795 5.0778069496154785 0.3032747507095337 255 255 255
6.05993127822876 5.186491012573242 0.36605027318000793 255 255 255
6.105050563812256 5.245753765106201 0.30975186824798584 255 255 255
6.125765323638916 5.231632709503174 0.3103637397289276 255 255 255
6.002737998962402 5.240248680114746 0.3980953097343445 255 255 255
6.172270774841309 5.321202278137207 0.29346832633018494 255 255 255
5.994419097900391 5.186498641967773 0.4111197888851166 255 255 255
5.941542148590088 5.258812427520752 0.3950750231742859 255 255 255
5.890787124633789 5.141377925872803 0.3919484615325928 255 255 255
5.891584873199463 5.287533283233643 0.3662013113498688 255 255 255
6.191498756408691 5.374966144561768 0.3202345371246338 255 255 255
6.028286457061768 5.405464172363281 0.28668510913848877 255 255 255
5.9054694175720215 5.484750747680664 0.31317123770713806 255 255 255
5.997367858886719 5.536849498748779 0.3455100953578949 255 255 255
5.9235405921936035 5.472075939178467 0.2632446587085724 255 255 255
6.017466068267822 5.505498886108398 0.3566991984844208 255 255 255
7.288146495819092 6.811509609222412 0.33844447135925293 255 255 255
5.995006561279297 5.6057562828063965 0.2684684693813324 255 255 255
5.770730018615723 5.450238227844238 0.38748982548713684 255 255 255
6.848669052124023 6.3973588943481445 0.3783065676689148 255 255 255
6.784933090209961 6.575672149658203 0.3570903539657593 255 255 255
5.575771808624268 5.234441757202148 0.278850257396698 255 255 255
10.724139213562012 -7.629868030548096 0.3802923262119293 255 255 255
9.966582298278809 -7.202748775482178 0.36842504143714905 255 255 255
11.246439933776855 -7.921499729156494 0.4209638833999634 255 255 255
10.66839599609375 -7.45055627822876 0.39643803238868713 255 255 255
10.601844787597656 -7.3635783195495605 0.3433876931667328 255 255 255
10.64451789855957 -7.532894134521484 0.40570005774497986 255 255 255
10.470489501953125 -7.21641206741333 0.4333531856536865 255 255 255
11.853564262390137 -8.1323881149292 0.513623058795929 255 255 255
11.278841972351074 -7.797503471374512 0.4113738536834717 255 255 255
11.263473510742188 -7.746587753295898 0.4279461205005646 255 255 255
11.589012145996094 -7.730550289154053 0.46506279706954956 255 255 255
11.9025239944458 -8.012307167053223 0.4008820950984955 255 255 255
11.902534484863281 -7.913608074188232 0.46161118149757385 255 255 255
12.026683807373047 -7.930910110473633 0.3639926612377167 255 255 255
11.588332176208496 -7.639749050140381 0.45124971866607666 255 255 255
11.632295608520508 -7.637167453765869 0.4468105137348175 255 255 255
11.972945213317871 -7.759368896484375 0.4341188073158264 255 255 255
12.101798057556152 -7.833145618438721 0.4351464509963989 255 255 255
