ply
format ascii 1.0
element vertex 701
property float x
property float y
property float z
property uchar red
property uchar green
property uchar blue
end_header
69.46941375732422 -17.291099548339844 2.664293050765991 255 255 255
68.11067199707031 -16.728246688842773 2.5509963035583496 255 255 255
67.04547882080078 -16.252639770507812 2.5792462825775146 255 255 255
67.09468078613281 -16.156192779541016 2.5798401832580566 255 255 255
67.07678985595703 -15.772472381591797 2.544746160507202 255 255 255
63.10862350463867 -14.657461166381836 2.338869094848633 255 255 255
61.8513069152832 -14.170576095581055 2.36106276512146 255 255 255
61.6829719543457 -13.849709510803223 2.2748279571533203 255 255 255
60.103759765625 -13.552279472351074 2.297656297683716 255 255 255
59.056766510009766 -13.176949501037598 2.1866629123687744 255 255 255
57.63946533203125 -12.656972885131836 2.1808345317840576 255 255 255
56.917720794677734 -12.146894454956055 2.228027820587158 255 255 255
56.371337890625 -11.83790111541748 2.218557119369507 255 255 255
54.99907684326172 -11.408198356628418 2.1508984565734863 255 255 255
54.382320404052734 -11.175436973571777 2.012709140777588 255 255 255
53.673622131347656 -10.956445693969727 1.9822057485580444 255 255 255
53.654541015625 -10.8013334274292 2.0980002880096436 255 255 255
53.68320846557617 -10.61404037475586 2.0224928855895996 255 255 255
53.849979400634766 -10.39314079284668 2.036501884460449 255 255 255
53.847347259521484 -10.263073921203613 2.0974111557006836 255 255 255
53.88507080078125 -9.973275184631348 2.067387104034424 255 255 255
53.90708923339844 -10.081583976745605 2.059699058532715 255 255 255
54.01492691040039 -9.728774070739746 2.0901856422424316 255 255 255
54.16228485107422 -9.687572479248047 2.096606969833374 255 255 255
54.153343200683594 -9.596837043762207 2.1087210178375244 255 255 255
53.98915481567383 -9.24570369720459 2.128962278366089 255 255 255
54.3077507019043 -9.200217247009277 2.136289596557617 255 255 255
54.31241989135742 -9.01729965209961 2.125413417816162 255 255 255
44.68672561645508 -7.478628158569336 1.7736537456512451 255 255 255
44.295841217041016 -7.165166854858398 1.7483642101287842 255 255 255
43.751495361328125 -6.961294174194336 1.7130873203277588 255 255 255
43.358856201171875 -6.744040489196777 1.7368181943893433 255 255 255
43.1999397277832 -6.525835037231445 1.6459932327270508 255 255 255
22.142271041870117 -3.2929470539093018 0.9891801476478577 255 255 255
41.744659423828125 -6.1233367919921875 1.591300368309021 255 255 255
41.18191146850586 -5.950234413146973 1.6065235137939453 255 255 255
21.996299743652344 -3.0663089752197266 1.0267587900161743 255 255 255
22.071744918823242 -3.0032267570495605 1.0326508283615112 255 255 255
22.95021629333496 -3.1401023864746094 1.0284810066223145 255 255 255
22.845338821411133 -2.9927217960357666 1.0128642320632935 255 255 255
23.00174331665039 -2.930306911468506 1.0318289995193481 255 255 255
22.18214988708496 -2.8202147483825684 0.9314931035041809 255 255 255
21.561662673950195 -2.65429425239563 0.9610342979431152 255 255 255
21.579296112060547 -2.608799457550049 0.9712734818458557 255 255 255
22.36197853088379 -2.6597378253936768 0.9354659914970398 255 255 255
22.329774856567383 -2.5649616718292236 0.9479072690010071 255 255 255
21.61296844482422 -2.4388155937194824 0.9184201955795288 255 255 255
21.336448669433594 -2.245729684829712 0.8709919452667236 255 255 255
21.401952743530273 -2.2605443000793457 0.9708884954452515 255 255 255
21.935941696166992 -2.293571949005127 0.9508320689201355 255 255 255
21.585832595825195 -2.1420412063598633 0.9041066765785217 255 255 255
21.37047576904297 -2.101431369781494 0.9736729860305786 255 255 255
21.296123504638672 -2.0355656147003174 0.9002217650413513 255 255 255
21.190752029418945 -1.9338171482086182 0.9317699074745178 255 255 255
21.172149658203125 -1.7607183456420898 0.9503347873687744 255 255 255
21.26561164855957 -1.7698605060577393 0.9450549483299255 255 255 255
21.533199310302734 -1.7573517560958862 0.9409338235855103 255 255 255
21.509475708007812 -1.7142387628555298 0.9545490145683289 255 255 255
21.43657875061035 -1.6711018085479736 1.0263025760650635 255 255 255
21.201175689697266 -1.5334309339523315 0.9622809290885925 255 255 255
21.135108947753906 -1.4314016103744507 1.0019506216049194 255 255 255
21.08694076538086 -1.3296431303024292 0.9848989248275757 255 255 255
21.0336971282959 -1.302534580230713 0.9095137119293213 255 255 255
20.92561912536621 -1.3202496767044067 1.0099152326583862 255 255 255
20.992462158203125 -1.1566402912139893 1.02982497215271 255 255 255
21.072986602783203 -1.1263025999069214 0.7706528902053833 255 255 255
21.0375919342041 -0.9623456597328186 0.7708424925804138 255 255 255
21.80202865600586 -1.0870472192764282 0.8330346345901489 255 255 255
21.497175216674805 -0.9892270565032959 0.6878806948661804 255 255 255
21.40302276611328 -0.8707389831542969 0.918313205242157 255 255 255
21.215377807617188 -0.9133495688438416 0.7891424894332886 255 255 255
21.308460235595703 -0.8289927244186401 0.7612510323524475 255 255 255
21.289592742919922 -0.8301417827606201 0.8161802291870117 255 255 255
21.31603240966797 -0.5954123735427856 0.8414343595504761 255 255 255
20.617122650146484 -0.5608978867530823 0.8565759658813477 255 255 255
20.72736167907715 -0.5344708561897278 0.8274323344230652 255 255 255
20.572460174560547 -0.4902834892272949 0.7890942692756653 255 255 255
20.752485275268555 -0.4811860918998718 0.6752083897590637 255 255 255
20.751911163330078 -0.42796197533607483 0.6636470556259155 255 255 255
20.76951026916504 -0.2012869268655777 0.7075011134147644 255 255 255
20.884231567382812 -0.18107806146144867 0.7317261099815369 255 255 255
21.171504974365234 -0.18214434385299683 0.7583189010620117 255 255 255
21.23577308654785 -0.0738784670829773 0.7220114469528198 255 255 255
21.37738800048828 0.09710937738418579 0.8134380578994751 255 255 255
21.498149871826172 0.05474822223186493 0.7533684968948364 255 255 255
19.020606994628906 0.12385440617799759 0.7057161927223206 255 255 255
18.991939544677734 0.19181036949157715 0.7356066703796387 255 255 255
18.900135040283203 0.1601814329624176 0.7856018543243408 255 255 255
21.899765014648438 0.22375360131263733 0.827127993106842 255 255 255
18.43535804748535 0.32345080375671387 0.7450588941574097 255 255 255
18.50938606262207 0.32200920581817627 0.7260215878486633 255 255 255
18.785400390625 0.38244175910949707 0.7898446321487427 255 255 255
18.62614631652832 0.5276477336883545 0.6805469989776611 255 255 255
18.188888549804688 0.44921600818634033 0.6929492354393005 255 255 255
18.1258487701416 0.38641536235809326 0.6616398692131042 255 255 255
17.923463821411133 0.673855721950531 0.6810996532440186 255 255 255
17.713293075561523 0.6478583216667175 0.6373205184936523 255 255 255
17.810821533203125 0.723479688167572 0.6544787287712097 255 255 255
17.674545288085938 0.7267900705337524 0.7180725336074829 255 255 255
17.78287124633789 0.754534900188446 0.7618836760520935 255 255 255
17.869977951049805 0.9440969824790955 0.7146892547607422 255 255 255
17.691099166870117 0.9293357133865356 0.6758365035057068 255 255 255
17.68606948852539 1.0610624551773071 0.7080586552619934 255 255 255
17.752727508544922 1.0462034940719604 0.6953961849212646 255 255 255
18.043048858642578 1.1184756755828857 0.7508719563484192 255 255 255
17.83228302001953 1.0999929904937744 0.7437260746955872 255 255 255
17.836475372314453 1.304583191871643 0.7345405220985413 255 255 255
17.80790138244629 1.1969107389450073 0.7145547270774841 255 255 255
17.998722076416016 1.2958699464797974 0.6608971357345581 255 255 255
17.47089385986328 1.271327018737793 0.7103666663169861 255 255 255
18.069717407226562 1.3460191488265991 0.6464771628379822 255 255 255
18.021528244018555 1.390364170074463 0.6572859287261963 255 255 255
17.533262252807617 1.5201716423034668 0.598388135433197 255 255 255
17.504650115966797 1.4291865825653076 0.7905939817428589 255 255 255
17.9838924407959 1.5483574867248535 0.6681216359138489 255 255 255
17.682310104370117 1.6159199476242065 0.6706349849700928 255 255 255
17.5862979888916 1.7465218305587769 0.6765561699867249 255 255 255
17.92150115966797 1.8473955392837524 0.7126850485801697 255 255 255
18.020265579223633 1.8625541925430298 0.7020847201347351 255 255 255
15.365159034729004 1.7460063695907593 0.5768816471099854 255 255 255
15.298935890197754 1.6547437906265259 0.7140170931816101 255 255 255
15.336508750915527 1.7876183986663818 0.6012837886810303 255 255 255
17.36182975769043 2.0039122104644775 0.6448930501937866 255 255 255
15.285689353942871 1.7372344732284546 0.6422727704048157 255 255 255
15.172731399536133 1.8499835729599 0.6394848227500916 255 255 255
15.63357925415039 1.9451085329055786 0.7087067365646362 255 255 255
18.369983673095703 2.335329055786133 0.7307290434837341 255 255 255
18.174264907836914 2.3611254692077637 0.7123211026191711 255 255 255
18.24240493774414 2.4539601802825928 0.7527414560317993 255 255 255
18.232131958007812 2.482117176055908 0.8189273476600647 255 255 255
18.40021514892578 2.5841667652130127 0.7535114288330078 255 255 255
18.45261001586914 2.667358636856079 0.7132393717765808 255 255 255
21.929929733276367 3.1771411895751953 0.8199650049209595 255 255 255
21.78453826904297 3.161038637161255 0.8200113773345947 255 255 255
21.486988067626953 3.2597968578338623 0.8140757083892822 255 255 255
20.894323348999023 3.2618980407714844 0.7187833786010742 255 255 255
20.920438766479492 3.1956350803375244 0.7222757935523987 255 255 255
15.201904296875 2.355567455291748 0.6182089447975159 255 255 255
15.236673355102539 2.484130620956421 0.6059502363204956 255 255 255
20.688365936279297 3.442006826400757 0.7979264855384827 255 255 255
20.54779624938965 3.5461814403533936 0.7739617228507996 255 255 255
15.397787094116211 2.655418634414673 0.5728167295455933 255 255 255
15.344331741333008 2.7437057495117188 0.6468986868858337 255 255 255
20.26913070678711 3.5793116092681885 0.813429057598114 255 255 255
20.157197952270508 3.64912486076355 0.7482810616493225 255 255 255
19.987051010131836 3.71454119682312 0.6951313018798828 255 255 255
19.892980575561523 3.7468433380126953 0.6656577587127686 255 255 255
19.77318000793457 3.7659335136413574 0.7538315057754517 255 255 255
19.772071838378906 3.8069329261779785 0.7050454020500183 255 255 255
19.487346649169922 3.87933611869812 0.7459158897399902 255 255 255
19.470399856567383 3.9382073879241943 0.7980132102966309 255 255 255
19.35301399230957 3.9816207885742188 0.7408173084259033 255 255 255
19.287500381469727 3.9631097316741943 0.6936834454536438 255 255 255
19.086463928222656 4.015869617462158 0.7251675724983215 255 255 255
19.0844783782959 4.0362629890441895 0.7188866138458252 255 255 255
18.984479904174805 4.083791255950928 0.7392035126686096 255 255 255
18.855327606201172 3.976363182067871 0.6742359399795532 255 255 255
18.851730346679688 4.225930690765381 0.7003464102745056 255 255 255
18.75618553161621 4.152525424957275 0.7401074171066284 255 255 255
18.70966339111328 4.249218940734863 0.6714670062065125 255 255 255
18.50569725036621 4.387710094451904 0.8104750514030457 255 255 255
18.524564743041992 4.238487243652344 0.789230465888977 255 255 255
18.44280242919922 4.400878429412842 0.6632609367370605 255 255 255
18.354352951049805 4.352861404418945 0.7477328181266785 255 255 255
18.185863494873047 4.480773448944092 0.6866220831871033 255 255 255
13.807822227478027 3.4595017433166504 0.5947332978248596 255 255 255
13.808259963989258 3.5033926963806152 0.6100335717201233 255 255 255
17.96661376953125 4.539968013763428 0.7656125426292419 255 255 255
13.109423637390137 3.3613121509552 0.6312185525894165 255 255 255
17.8956298828125 4.520333766937256 0.6806990504264832 255 255 255
17.735708236694336 4.673569679260254 0.7599000334739685 255 255 255
17.62382698059082 4.688057899475098 0.7764161229133606 255 255 255
17.453372955322266 4.593873977661133 0.768230676651001 255 255 255
17.369779586791992 4.658634662628174 0.70139479637146 255 255 255
17.240856170654297 4.686617851257324 0.7605407238006592 255 255 255
17.311357498168945 4.769058704376221 0.7546852827072144 255 255 255
17.153034210205078 4.788576126098633 0.7920152544975281 255 255 255
17.14250946044922 4.85581636428833 0.7488211393356323 255 255 255
16.993316650390625 4.860725402832031 0.7201854586601257 255 255 255
11.141651153564453 3.2940523624420166 0.5220730304718018 255 255 255
11.135851860046387 3.2551589012145996 0.4964877963066101 255 255 255
10.782773971557617 3.209662914276123 0.545173168182373 255 255 255
10.678008079528809 3.210216760635376 0.5331292152404785 255 255 255
9.770610809326172 3.0204453468322754 0.4937721788883209 255 255 255
9.599340438842773 2.9455602169036865 0.559924840927124 255 255 255
9.328285217285156 2.886775255203247 0.5119215846061707 255 255 255
9.373988151550293 2.8865890502929688 0.5631201863288879 255 255 255
9.372976303100586 2.9926974773406982 0.4597468078136444 255 255 255
9.739760398864746 3.121206521987915 0.4700390696525574 255 255 255
9.53108024597168 3.0729899406433105 0.5633239150047302 255 255 255
9.89346694946289 3.224491596221924 0.5132874250411987 255 255 255
9.48717212677002 2.994478940963745 0.5203936696052551 255 255 255
9.831686973571777 3.2868874073028564 0.4701692461967468 255 255 255
9.486087799072266 3.1916823387145996 0.44608017802238464 255 255 255
9.554037094116211 3.25718092918396 0.48066967725753784 255 255 255
9.605950355529785 3.261253595352173 0.45877885818481445 255 255 255
9.640405654907227 3.383053779602051 0.5176675915718079 255 255 255
10.015271186828613 3.5296242237091064 0.5126903653144836 255 255 255
9.584420204162598 3.362826347351074 0.5869163870811462 255 255 255
9.872209548950195 3.5091943740844727 0.4900228679180145 255 255 255
9.588265419006348 3.435460090637207 0.5743377208709717 255 255 255
9.558390617370605 3.431405544281006 0.48713651299476624 255 255 255
9.464035987854004 3.481799364089966 0.5239884257316589 255 255 255
9.465950965881348 3.4970343112945557 0.5290725231170654 255 255 255
9.474812507629395 3.514591932296753 0.4566860496997833 255 255 255
9.873528480529785 3.6934614181518555 0.49778249859809875 255 255 255
9.930651664733887 3.752225875854492 0.48727336525917053 255 255 255
10.260823249816895 3.824073314666748 0.5291125178337097 255 255 255
9.567756652832031 3.6851892471313477 0.5040925145149231 255 255 255
9.564923286437988 3.703915596008301 0.4054620862007141 255 255 255
9.536139488220215 3.7962472438812256 0.5985801815986633 255 255 255
9.564899444580078 3.731736421585083 0.507958710193634 255 255 255
9.504593849182129 3.747507095336914 0.4920995533466339 255 255 255
9.518217086791992 3.8329126834869385 0.4303341805934906 255 255 255
9.509450912475586 3.801377534866333 0.5003892183303833 255 255 255
9.573787689208984 3.9448211193084717 0.4435572922229767 255 255 255
9.697591781616211 4.028666973114014 0.5135238170623779 255 255 255
9.464668273925781 3.9926106929779053 0.5077630877494812 255 255 255
9.580609321594238 3.93194317817688 0.5994584560394287 255 255 255
9.471512794494629 4.052095890045166 0.47341328859329224 255 255 255
9.38857650756836 4.029991626739502 0.45677363872528076 255 255 255
9.347500801086426 3.9803926944732666 0.5437195301055908 255 255 255
9.31755256652832 4.07649040222168 0.47714799642562866 255 255 255
9.227656364440918 4.098175525665283 0.5319811105728149 255 255 255
9.470215797424316 4.151436805725098 0.47273147106170654 255 255 255
9.306879997253418 4.125025272369385 0.5118041038513184 255 255 255
9.622201919555664 4.294094562530518 0.5587526559829712 255 255 255
9.31129264831543 4.240337371826172 0.46795934438705444 255 255 255
10.515645027160645 4.806331634521484 0.5723228454589844 255 255 255
9.802544593811035 4.433877468109131 0.5476247668266296 255 255 255
10.414731979370117 4.772966384887695 0.5786226391792297 255 255 255
9.89841079711914 4.611350059509277 0.4860318899154663 255 255 255
10.371315956115723 4.852787971496582 0.539176344871521 255 255 255
16.838977813720703 7.945980548858643 0.6770599484443665 255 255 255
16.874908447265625 8.018733024597168 0.7660514712333679 255 255 255
11.231241226196289 5.384801864624023 0.5348449945449829 255 255 255
10.392012596130371 4.993937015533447 0.5145586729049683 255 255 255
10.338943481445312 5.012474536895752 0.5189924836158752 255 255 255
10.33325481414795 5.159046173095703 0.48816487193107605 255 255 255
10.269156455993652 5.032023906707764 0.5812410116195679 255 255 255
10.250288009643555 5.009289264678955 0.539334237575531 255 255 255
11.151494026184082 5.583234786987305 0.5403721332550049 255 255 255
11.154114723205566 5.713522911071777 0.5824283957481384 255 255 255
11.097920417785645 5.685817718505859 0.42842355370521545 255 255 255
11.061643600463867 5.623086929321289 0.5249266624450684 255 255 255
11.059401512145996 5.681626319885254 0.5259180068969727 255 255 255
11.348246574401855 5.935977935791016 0.5466777086257935 255 255 255
11.126447677612305 5.825113296508789 0.5452173948287964 255 255 255
10.990163803100586 5.805628776550293 0.47977060079574585 255 255 255
10.8228120803833 5.733686923980713 0.5733402967453003 255 255 255
10.793135643005371 5.733379364013672 0.4627402424812317 255 255 255
7.4449663162231445 4.000606536865234 0.42365795373916626 255 255 255
7.238250732421875 3.934966564178467 0.45747411251068115 255 255 255
7.458357334136963 3.9668564796447754 0.40239837765693665 255 255 255
7.200448513031006 3.94047212600708 0.4322319030761719 255 255 255
7.287621021270752 4.0718913078308105 0.4203591048717499 255 255 255
7.180559158325195 4.008232116699219 0.4466341733932495 255 255 255
7.047298431396484 3.898110866546631 0.40242838859558105 255 255 255
6.880842685699463 3.9144513607025146 0.4529425799846649 255 255 255
7.111949443817139 4.123220920562744 0.38182657957077026 255 255 255
6.877921104431152 3.8902134895324707 0.4547424614429474 255 255 255
7.040690898895264 4.047708034515381 0.4960339367389679 255 255 255
7.0321149826049805 4.052517414093018 0.44233983755111694 255 255 255
6.973089218139648 4.166598320007324 0.4253538250923157 255 255 255
6.829368591308594 4.035245895385742 0.3817787766456604 255 255 255
6.861494064331055 3.9818127155303955 0.40355977416038513 255 255 255
6.895096778869629 4.049968242645264 0.4958600699901581 255 255 255
6.930208683013916 4.187539577484131 0.4976692497730255 255 255 255
6.8303446769714355 4.137548446655273 0.40225476026535034 255 255 255
6.726286888122559 4.079835414886475 0.4232850670814514 255 255 255
7.006933689117432 4.3001580238342285 0.39949125051498413 255 255 255
6.6844482421875 4.13852596282959 0.444960355758667 255 255 255
6.593329429626465 4.15169095993042 0.46319809556007385 255 255 255
6.9453444480896 4.188229560852051 0.439578115940094 255 255 255
6.552408218383789 4.2378315925598145 0.3381195068359375 255 255 255
6.7500200271606445 4.1914496421813965 0.32042163610458374 255 255 255
6.7127156257629395 4.232399940490723 0.474023699760437 255 255 255
6.717550277709961 4.280538558959961 0.3665558993816376 255 255 255
6.465428829193115 4.175286293029785 0.3526943624019623 255 255 255
6.583888053894043 4.278594493865967 0.37485796213150024 255 255 255
6.6391282081604 4.273856163024902 0.32530486583709717 255 255 255
6.69015645980835 4.439725399017334 0.5010277032852173 255 255 255
6.793521404266357 4.479012489318848 0.468522310256958 255 255 255
6.684164047241211 4.4136552810668945 0.3956999182701111 255 255 255
6.6146016120910645 4.459733486175537 0.4810270369052887 255 255 255
6.51216459274292 4.325301647186279 0.4293351173400879 255 255 255
8.12862777709961 5.423441410064697 0.4646657109260559 255 255 255
6.599299430847168 4.572293758392334 0.4394654333591461 255 255 255
6.638063907623291 4.5914692878723145 0.37731051445007324 255 255 255
7.817981243133545 5.436844348907471 0.5222539901733398 255 255 255
7.947271347045898 5.487554550170898 0.3724503517150879 255 255 255
7.921897888183594 5.437902450561523 0.5151779651641846 255 255 255
6.686296463012695 4.6911163330078125 0.43702933192253113 255 255 255
7.784101963043213 5.565982818603516 0.5207025408744812 255 255 255
7.742264747619629 5.371451377868652 0.4537988305091858 255 255 255
7.85872745513916 5.662725448608398 0.5170747637748718 255 255 255
7.851712226867676 5.69029426574707 0.43586885929107666 255 255 255
7.722121715545654 5.608659744262695 0.5378561019897461 255 255 255
7.492403984069824 5.433740615844727 0.4858684241771698 255 255 255
10.280430793762207 -9.763603210449219 0.5394421815872192 255 255 255
10.448073387145996 -9.973575592041016 0.6179002523422241 255 255 255
10.544705390930176 -9.825607299804688 0.6148127913475037 255 255 255
10.475855827331543 -9.841714859008789 0.5545974373817444 255 255 255
10.07780647277832 -9.312692642211914 0.5683375597000122 255 255 255
10.05250072479248 -9.202568054199219 0.6150253415107727 255 255 255
10.114189147949219 -9.242331504821777 0.5961564183235168 255 255 255
10.310295104980469 -9.380191802978516 0.5826157927513123 255 255 255
10.469947814941406 -9.439384460449219 0.6528476476669312 255 255 255
10.392618179321289 -9.375407218933105 0.5974737405776978 255 255 255
10.329025268554688 -9.195887565612793 0.6621963977813721 255 255 255
10.291234016418457 -9.226573944091797 0.5483057498931885 255 255 255
10.339320182800293 -9.06467056274414 0.6064386963844299 255 255 255
10.461593627929688 -9.136083602905273 0.6209880113601685 255 255 255
10.446550369262695 -9.023900985717773 0.6533644199371338 255 255 255
12.291437149047852 -10.804810523986816 0.6578864455223083 255 255 255
12.269766807556152 -10.484691619873047 0.6281564235687256 255 255 255
11.001774787902832 -9.542648315429688 0.5470656752586365 255 255 255
10.324204444885254 -8.77126693725586 0.5933781266212463 255 255 255
10.590508460998535 -9.015742301940918 0.7283725738525391 255 255 255
10.456864356994629 -8.969574928283691 0.6314974427223206 255 255 255
10.450788497924805 -8.794066429138184 0.566609799861908 255 255 255
10.43822956085205 -8.716388702392578 0.5901024341583252 255 255 255
10.69730281829834 -8.752569198608398 0.6527553796768188 255 255 255
10.973725318908691 -8.988507270812988 0.6310710906982422 255 255 255
10.995969772338867 -9.030407905578613 0.552741289138794 255 255 255
10.550329208374023 -8.737776756286621 0.5785297751426697 255 255 255
10.805411338806152 -8.7669038772583 0.5889817476272583 255 255 255
10.899636268615723 -8.770930290222168 0.62101149559021 255 255 255
11.014459609985352 -8.799532890319824 0.5870853066444397 255 255 255
11.729658126831055 -9.257426261901855 0.570509135723114 255 255 255
11.894301414489746 -9.360801696777344 0.6629655957221985 255 255 255
12.241150856018066 -9.604669570922852 0.5940576195716858 255 255 255
11.633793830871582 -9.126519203186035 0.6526443958282471 255 255 255
11.081783294677734 -8.659046173095703 0.6762605309486389 255 255 255
11.52396297454834 -8.940735816955566 0.6359974145889282 255 255 255
11.29446029663086 -8.52694320678711 0.5772397518157959 255 255 255
11.50809097290039 -8.704578399658203 0.5720968246459961 255 255 255
11.187671661376953 -8.454095840454102 0.5974762439727783 255 255 255
11.163119316101074 -8.397451400756836 0.6249063611030579 255 255 255
11.23620891571045 -8.435708999633789 0.603263795375824 255 255 255
11.08729362487793 -8.270936012268066 0.6230806708335876 255 255 255
11.542865753173828 -8.568434715270996 0.5605685710906982 255 255 255
11.53459644317627 -8.456254959106445 0.6928508877754211 255 255 255
11.549683570861816 -8.506468772888184 0.6108818054199219 255 255 255
11.48502254486084 -8.376108169555664 0.5492842197418213 255 255 255
11.992901802062988 -8.743692398071289 0.6168481707572937 255 255 255
12.117430686950684 -8.758213996887207 0.5677468776702881 255 255 255
12.013614654541016 -8.585525512695312 0.6038715839385986 255 255 255
12.420228004455566 -8.7611083984375 0.6440688967704773 255 255 255
12.223357200622559 -8.535026550292969 0.574272871017456 255 255 255
12.151588439941406 -8.554862976074219 0.5588240623474121 255 255 255
12.21409797668457 -8.4535493850708 0.6105348467826843 255 255 255
11.840507507324219 -8.332979202270508 0.6477978825569153 255 255 255
11.789091110229492 -8.09530258178711 0.6804423332214355 255 255 255
11.824407577514648 -8.081461906433105 0.5800772309303284 255 255 255
11.824764251708984 -7.996959686279297 0.6068213582038879 255 255 255
11.927749633789062 -8.142023086547852 0.5346300005912781 255 255 255
12.213510513305664 -8.199262619018555 0.6005858778953552 255 255 255
12.185276985168457 -8.191120147705078 0.5891546607017517 255 255 255
12.254670143127441 -8.2055025100708 0.6442959904670715 255 255 255
12.859299659729004 -8.4713134765625 0.620340883731842 255 255 255
12.528000831604004 -8.152077674865723 0.6110712885856628 255 255 255
12.447860717773438 -8.057963371276855 0.6676594614982605 255 255 255
12.597463607788086 -8.14090347290039 0.6070649027824402 255 255 255
13.069801330566406 -8.323403358459473 0.720157265663147 255 255 255
13.221717834472656 -8.435542106628418 0.6659607291221619 255 255 255
13.196907043457031 -8.288797378540039 0.5937379598617554 255 255 255
14.645891189575195 -9.21591854095459 0.6111404299736023 255 255 255
13.207780838012695 -8.191028594970703 0.6351124048233032 255 255 255
13.971275329589844 -8.66318416595459 0.65487140417099 255 255 255
13.425561904907227 -8.255340576171875 0.6225388050079346 255 255 255
15.379969596862793 -9.359257698059082 0.7188984751701355 255 255 255
13.479508399963379 -8.232626914978027 0.6358441114425659 255 255 255
13.400157928466797 -8.027039527893066 0.6449768543243408 255 255 255
19.65953826904297 -11.807778358459473 0.9053905606269836 255 255 255
19.7830810546875 -11.819012641906738 0.7659075260162354 255 255 255
19.679594039916992 -11.675902366638184 0.9376240968704224 255 255 255
19.80142593383789 -11.691665649414062 0.7738301753997803 255 255 255
19.779701232910156 -11.562710762023926 0.828744649887085 255 255 255
20.200626373291016 -11.708532333374023 0.8325594067573547 255 255 255
20.230850219726562 -11.732526779174805 0.8021619319915771 255 255 255
20.36142921447754 -11.634316444396973 0.8469917178153992 255 255 255
20.42729949951172 -11.674636840820312 0.7432683110237122 255 255 255
20.427560806274414 -11.57731819152832 0.8489612936973572 255 255 255
20.589277267456055 -11.617602348327637 0.8000727295875549 255 255 255
20.71908950805664 -11.568826675415039 0.9345846176147461 255 255 255
20.713653564453125 -11.44801139831543 0.8453620076179504 255 255 255
20.65777015686035 -11.386063575744629 0.8642358183860779 255 255 255
21.77933692932129 -11.95895004272461 1.0190993547439575 255 255 255
21.941831588745117 -11.895061492919922 0.8939554691314697 255 255 255
22.006576538085938 -11.894023895263672 0.9487718939781189 255 255 255
21.965879440307617 -11.833727836608887 0.9555907249450684 255 255 255
38.48075866699219 -20.54973793029785 1.3300262689590454 255 255 255
38.57492446899414 -20.392080307006836 1.464758276939392 255 255 255
38.54066467285156 -20.343095779418945 1.4308161735534668 255 255 255
38.79848861694336 -20.17096519470215 1.3748983144760132 255 255 255
38.77731704711914 -20.097076416015625 1.403415560722351 255 255 255
38.97890853881836 -20.064010620117188 1.3734601736068726 255 255 255
38.9512825012207 -19.912878036499023 1.4256887435913086 255 255 255
39.10150146484375 -19.687524795532227 1.3410903215408325 255 255 255
39.16481399536133 -19.740577697753906 1.3598597049713135 255 255 255
39.38584899902344 -19.626367568969727 1.3506704568862915 255 255 255
39.62284469604492 -19.752857208251953 1.521601676940918 255 255 255
39.45698928833008 -19.353872299194336 1.406491994857788 255 255 255
53.01872253417969 -25.901906967163086 1.8433533906936646 255 255 255
53.20188522338867 -25.691009521484375 1.7687594890594482 255 255 255
53.596004486083984 -25.82015609741211 1.8132667541503906 255 255 255
59.41831970214844 -28.5537052154541 2.1040496826171875 255 255 255
59.698699951171875 -28.289745330810547 2.0419018268585205 255 255 255
59.406654357910156 -27.906373977661133 2.0284149646759033 255 255 255
59.28835678100586 -27.731496810913086 1.9743191003799438 255 255 255
60.757564544677734 -27.936655044555664 1.9998278617858887 255 255 255
75.46830749511719 -24.958776473999023 2.322205066680908 255 255 255
75.30170440673828 -24.505830764770508 2.3602705001831055 255 255 255
74.82256317138672 -24.057374954223633 2.315244674682617 255 255 255
73.93631744384766 -23.539743423461914 2.3226823806762695 255 255 255
74.18816375732422 -23.410362243652344 2.4185361862182617 255 255 255
73.79158782958984 -23.163925170898438 2.334709405899048 255 255 255
73.88780212402344 -22.890625 2.215343952178955 255 255 255
73.5118408203125 -22.453638076782227 2.327495813369751 255 255 255
73.45110321044922 -22.244274139404297 2.325054168701172 255 255 255
73.4486083984375 -22.053552627563477 2.2414588928222656 255 255 255
73.55852508544922 -21.83574867248535 2.354743242263794 255 255 255
73.55559539794922 -21.56315803527832 2.2731425762176514 255 255 255
73.67017364501953 -21.319265365600586 2.365807294845581 255 255 255
73.951904296875 -21.29559898376465 2.360987663269043 255 255 255
73.95502471923828 -20.980911254882812 2.311318874359131 255 255 255
74.124267578125 -20.886184692382812 2.240565299987793 255 255 255
74.26470947265625 -20.669967651367188 2.287249803543091 255 255 255
74.44633483886719 -20.35746955871582 2.339658260345459 255 255 255
74.39513397216797 -20.12586784362793 2.374516487121582 255 255 255
74.58854675292969 -20.028614044189453 2.2884905338287354 255 255 255
74.8243408203125 -19.8426456451416 2.300161123275757 255 255 255
74.67884826660156 -19.545238494873047 2.3206865787506104 255 255 255
74.84805297851562 -19.424579620361328 2.348496913909912 255 255 255
72.384765625 -18.523462295532227 2.274744749069214 255 255 255
71.76240539550781 -18.129165649414062 2.268204927444458 255 255 255
69.43219757080078 -17.24075698852539 2.105109930038452 255 255 255
68.0188217163086 -16.850059509277344 2.169416666030884 255 255 255
66.9411849975586 -16.398752212524414 2.1658644676208496 255 255 255
67.01800537109375 -16.222829818725586 2.1634132862091064 255 255 255
67.16927337646484 -15.912420272827148 2.042585611343384 255 255 255
63.00234603881836 -14.8989896774292 2.0889828205108643 255 255 255
61.884830474853516 -14.275410652160645 1.9762423038482666 255 255 255
61.56133270263672 -14.023974418640137 2.0020458698272705 255 255 255
60.08235168457031 -13.63241958618164 2.009578227996826 255 255 255
59.019317626953125 -13.144793510437012 1.8881350755691528 255 255 255
57.56277847290039 -12.643094062805176 1.8181736469268799 255 255 255
56.872310638427734 -12.226113319396973 1.8722634315490723 255 255 255
56.41609191894531 -11.99701976776123 1.7238314151763916 255 255 255
54.88418960571289 -11.484493255615234 1.7651848793029785 255 255 255
54.295372009277344 -11.234002113342285 1.7736589908599854 255 255 255
53.59445571899414 -10.955167770385742 1.7693262100219727 255 255 255
53.542938232421875 -10.719608306884766 1.7991902828216553 255 255 255
53.683631896972656 -10.62961196899414 1.7037720680236816 255 255 255
53.70351028442383 -10.460742950439453 1.6694488525390625 255 255 255
53.66517639160156 -10.273807525634766 1.6884799003601074 255 255 255
53.789161682128906 -10.202756881713867 1.6712568998336792 255 255 255
53.75423049926758 -9.928692817687988 1.668049693107605 255 255 255
53.92567443847656 -9.851886749267578 1.7418116331100464 255 255 255
54.08395004272461 -9.758670806884766 1.6329020261764526 255 255 255
53.92478942871094 -9.45142650604248 1.6541657447814941 255 255 255
54.05048751831055 -9.495920181274414 1.7788653373718262 255 255 255
54.222660064697266 -9.221747398376465 1.7429958581924438 255 255 255
54.21405029296875 -9.08305549621582 1.7494367361068726 255 255 255
44.660621643066406 -7.247118949890137 1.447487711906433 255 255 255
44.11651611328125 -7.103578090667725 1.5307025909423828 255 255 255
43.65776824951172 -6.999557971954346 1.4321142435073853 255 255 255
43.27886199951172 -6.59979248046875 1.4235395193099976 255 255 255
43.18918228149414 -6.512101650238037 1.4640328884124756 255 255 255
43.286685943603516 -6.508791446685791 1.3793731927871704 255 255 255
41.60219192504883 -6.028120994567871 1.3433383703231812 255 255 255
41.13759231567383 -5.867161750793457 1.3735986948013306 255 255 255
34.81949996948242 -4.83739709854126 1.157568335533142 255 255 255
34.8122444152832 -4.834176063537598 1.1650476455688477 255 255 255
34.84425354003906 -4.81587553024292 1.138185739517212 255 255 255
34.70502853393555 -4.527683258056641 1.2008925676345825 255 255 255
22.988489151000977 -3.011627674102783 0.8726746439933777 255 255 255
22.925600051879883 -2.872809648513794 0.7922782897949219 255 255 255
22.972232818603516 -2.842071056365967 0.7838253974914551 255 255 255
22.82101058959961 -2.796921491622925 0.8047438263893127 255 255 255
22.713163375854492 -2.6432876586914062 0.9469066262245178 255 255 255
22.294286727905273 -2.4554331302642822 0.8529366254806519 255 255 255
22.513206481933594 -2.488250970840454 0.8558347821235657 255 255 255
22.396333694458008 -2.3582398891448975 0.8822811841964722 255 255 255
21.539653778076172 -2.2100555896759033 0.8336893916130066 255 255 255
21.53759002685547 -2.106228828430176 0.8257783651351929 255 255 255
21.460948944091797 -2.1082022190093994 0.8552435040473938 255 255 255
21.54566192626953 -2.071122169494629 0.8098053932189941 255 255 255
21.525264739990234 -2.0006165504455566 0.6778674125671387 255 255 255
21.35480499267578 -1.9235819578170776 0.8262577652931213 255 255 255
21.310495376586914 -1.794440507888794 0.7537452578544617 255 255 255
21.388437271118164 -1.843762755393982 0.7495921850204468 255 255 255
21.378957748413086 -1.7189003229141235 0.8064452409744263 255 255 255
21.40994644165039 -1.6765332221984863 0.8961137533187866 255 255 255
21.467313766479492 -1.6063249111175537 0.7158493995666504 255 255 255
20.94145393371582 -1.555456280708313 0.7715657949447632 255 255 255
20.92660140991211 -1.420201301574707 0.7236939072608948 255 255 255
20.95652198791504 -1.3430808782577515 0.7696218490600586 255 255 255
20.887523651123047 -1.3010179996490479 0.7511354684829712 255 255 255
20.81915855407715 -1.291916012763977 0.7634046077728271 255 255 255
20.802331924438477 -1.2560558319091797 0.7737124562263489 255 255 255
21.11503028869629 -1.1928378343582153 0.6905650496482849 255 255 255
21.12952423095703 -1.1097955703735352 0.7207287549972534 255 255 255
21.096797943115234 -1.0530966520309448 0.6500347852706909 255 255 255
21.190006256103516 -0.9883735775947571 0.7247238159179688 255 255 255
21.49664878845215 -0.9776856303215027 0.6431741118431091 255 255 255
21.39073371887207 -0.9388427734375 0.7383863925933838 255 255 255
21.310876846313477 -0.8973793387413025 0.6090831756591797 255 255 255
21.517086029052734 -0.6487746834754944 0.6532291769981384 255 255 255
21.385107040405273 -0.7770511507987976 0.6500746011734009 255 255 255
21.5032958984375 -0.6212015151977539 0.7238726615905762 255 255 255
21.716768264770508 -0.5355842113494873 0.764552891254425 255 255 255
21.03397560119629 -0.5274603962898254 0.6973987221717834 255 255 255
20.94367218017578 -0.4012289345264435 0.6017517447471619 255 255 255
21.52753257751465 -0.44316503405570984 0.6738255023956299 255 255 255
21.386598587036133 -0.3811683654785156 0.6794442534446716 255 255 255
21.10388946533203 -0.2858586013317108 0.7316131591796875 255 255 255
21.126787185668945 -0.20612476766109467 0.6636319160461426 255 255 255
21.190563201904297 -0.17148083448410034 0.693953275680542 255 255 255
21.174015045166016 -0.08585632592439651 0.6847501397132874 255 255 255
21.25362205505371 -0.0019525731913745403 0.6535259485244751 255 255 255
21.42267417907715 -0.012539221905171871 0.6829871535301208 255 255 255
21.262001037597656 0.07890891283750534 0.7241119742393494 255 255 255
21.76966667175293 0.19221702218055725 0.6787922382354736 255 255 255
21.989540100097656 0.2273866832256317 0.8165029287338257 255 255 255
19.132564544677734 0.22088094055652618 0.5828938484191895 255 255 255
19.15285873413086 0.40772196650505066 0.6785637736320496 255 255 255
19.123844146728516 0.2915332019329071 0.6597221493721008 255 255 255
18.33912467956543 0.40449345111846924 0.6513391733169556 255 255 255
18.176475524902344 0.45434173941612244 0.6405521631240845 255 255 255
18.138181686401367 0.4645782709121704 0.6024518013000488 255 255 255
17.8980655670166 0.5723538398742676 0.6604684591293335 255 255 255
17.724878311157227 0.5244409441947937 0.6180121898651123 255 255 255
17.785192489624023 0.6360565423965454 0.5582209229469299 255 255 255
18.528120040893555 0.8015334010124207 0.6162222623825073 255 255 255
18.562313079833984 0.9014580249786377 0.7319437861442566 255 255 255
17.962305068969727 0.8263280391693115 0.671994149684906 255 255 255
17.938825607299805 0.8823869824409485 0.6221782565116882 255 255 255
17.896902084350586 0.9283522963523865 0.6350698471069336 255 255 255
17.719053268432617 0.8896769881248474 0.5420728921890259 255 255 255
17.697729110717773 1.0343689918518066 0.5246821641921997 255 255 255
17.836109161376953 1.1299235820770264 0.6448512077331543 255 255 255
18.613704681396484 1.1342666149139404 0.6180307865142822 255 255 255
18.33483123779297 1.3337275981903076 0.6824128031730652 255 255 255
18.10462188720703 1.293454647064209 0.6356409788131714 255 255 255
17.91687774658203 1.3556307554244995 0.6309388279914856 255 255 255
17.59902000427246 1.3786771297454834 0.575661301612854 255 255 255
17.540016174316406 1.3663402795791626 0.6266295313835144 255 255 255
17.5181827545166 1.4451947212219238 0.6059443354606628 255 255 255
17.482059478759766 1.4320313930511475 0.5748812556266785 255 255 255
17.395044326782227 1.499352216720581 0.6211596131324768 255 255 255
17.42754554748535 1.4956446886062622 0.6060571074485779 255 255 255
17.393733978271484 1.4997843503952026 0.5962444543838501 255 255 255
17.571115493774414 1.683840274810791 0.6574658155441284 255 255 255
17.763185501098633 1.7885645627975464 0.7059012651443481 255 255 255
17.832658767700195 1.8216791152954102 0.6142796874046326 255 255 255
18.012483596801758 1.9216175079345703 0.6604835987091064 255 255 255
17.61935043334961 1.8619301319122314 0.598031759262085 255 255 255
17.707780838012695 2.009803533554077 0.5869506597518921 255 255 255
17.538375854492188 1.9805784225463867 0.700788140296936 255 255 255
15.283402442932129 1.832564115524292 0.6042287945747375 255 255 255
15.322039604187012 1.7670660018920898 0.4951595366001129 255 255 255
15.475536346435547 1.8810501098632812 0.58636075258255 255 255 255
15.325418472290039 2.013727903366089 0.5849587321281433 255 255 255
18.095308303833008 2.2922515869140625 0.6581296324729919 255 255 255
18.159534454345703 2.37640643119812 0.6724889874458313 255 255 255
18.149290084838867 2.4799270629882812 0.5728633999824524 255 255 255
18.140390396118164 2.46258544921875 0.6366381645202637 255 255 255
18.230993270874023 2.490945816040039 0.6006806492805481 255 255 255
18.22297477722168 2.5866942405700684 0.5567992925643921 255 255 255
18.343387603759766 2.7065205574035645 0.6992484331130981 255 255 255
18.326173782348633 2.7855348587036133 0.6076157093048096 255 255 255
18.226974487304688 2.7666289806365967 0.6147533655166626 255 255 255
18.4217472076416 2.85910964012146 0.6221067905426025 255 255 255
18.36121940612793 2.7994751930236816 0.6604428887367249 255 255 255
15.21959400177002 2.4094717502593994 0.6489055752754211 255 255 255
15.288003921508789 2.4918220043182373 0.5521584153175354 255 255 255
15.429937362670898 2.523627996444702 0.5818037986755371 255 255 255
15.359930992126465 2.6478686332702637 0.5313088893890381 255 255 255
20.54637336730957 3.461841344833374 0.6827200651168823 255 255 255
20.269420623779297 3.575025796890259 0.6727707982063293 255 255 255
20.23511505126953 3.6779937744140625 0.7419374585151672 255 255 255
20.15878677368164 3.6094555854797363 0.7232064604759216 255 255 255
20.051870346069336 3.637723684310913 0.6871569156646729 255 255 255
19.975589752197266 3.7249786853790283 0.6902802586555481 255 255 255
19.80845832824707 3.7675747871398926 0.6521981358528137 255 255 255
19.790023803710938 3.8485562801361084 0.6426547765731812 255 255 255
19.634552001953125 3.9541659355163574 0.6417038440704346 255 255 255
19.514585494995117 3.9162228107452393 0.6856578588485718 255 255 255
19.527875900268555 3.9579150676727295 0.6500270366668701 255 255 255
19.34077262878418 4.046036720275879 0.6079158782958984 255 255 255
19.28043556213379 4.084680080413818 0.6597484350204468 255 255 255
19.22810173034668 4.083261966705322 0.6083713173866272 255 255 255
19.09703254699707 4.114930152893066 0.675628662109375 255 255 255
19.063594818115234 4.084404945373535 0.6097350716590881 255 255 255
18.832847595214844 4.156574726104736 0.5869342684745789 255 255 255
13.800996780395508 3.1024281978607178 0.5808410048484802 255 255 255
18.707656860351562 4.271925449371338 0.5981726050376892 255 255 255
18.68709945678711 4.295865535736084 0.6668915152549744 255 255 255
18.4437313079834 4.2964019775390625 0.732451856136322 255 255 255
18.52509307861328 4.417224407196045 0.5583497881889343 255 255 255
18.390178680419922 4.547985553741455 0.607596755027771 255 255 255
18.237688064575195 4.468634605407715 0.6741838455200195 255 255 255
18.202598571777344 4.596770286560059 0.6894949078559875 255 255 255
13.859674453735352 3.5051894187927246 0.4835931360721588 255 255 255
18.047073364257812 4.583098411560059 0.5820441842079163 255 255 255
17.94272232055664 4.577884674072266 0.6935115456581116 255 255 255
17.992473602294922 4.54326057434082 0.623885452747345 255 255 255
17.774860382080078 4.69221305847168 0.6316788792610168 255 255 255
17.71402359008789 4.734882354736328 0.6173005700111389 255 255 255
17.702110290527344 4.774111747741699 0.6918551921844482 255 255 255
17.56798553466797 4.7057294845581055 0.6358365416526794 255 255 255
17.389070510864258 4.777859687805176 0.6201406121253967 255 255 255
17.344158172607422 4.699615955352783 0.6221611499786377 255 255 255
17.223308563232422 4.886055946350098 0.6702260375022888 255 255 255
10.715252876281738 3.0545494556427 0.4293012320995331 255 255 255
10.65214729309082 3.0195472240448 0.34117060899734497 255 255 255
10.712563514709473 3.0973196029663086 0.490713506937027 255 255 255
10.560354232788086 3.120934247970581 0.4356585741043091 255 255 255
10.481095314025879 3.090012311935425 0.4361738860607147 255 255 255
9.551351547241211 2.907196044921875 0.403770387172699 255 255 255
9.784972190856934 2.9326045513153076 0.46141162514686584 255 255 255
9.789069175720215 2.9601542949676514 0.41240206360816956 255 255 255
9.809860229492188 2.9583888053894043 0.38646388053894043 255 255 255
9.940056800842285 3.0848300457000732 0.4060775637626648 255 255 255
9.360758781433105 2.985687017440796 0.43319159746170044 255 255 255
9.962632179260254 3.117516040802002 0.47422605752944946 255 255 255
9.495950698852539 2.984790325164795 0.4367033541202545 255 255 255
9.443843841552734 3.0548346042633057 0.34851473569869995 255 255 255
9.540435791015625 3.085998773574829 0.4804418981075287 255 255 255
9.545315742492676 3.120145559310913 0.4746864438056946 255 255 255
9.411452293395996 3.128265857696533 0.4008854925632477 255 255 255
9.436525344848633 3.278979778289795 0.4642741084098816 255 255 255
9.42780590057373 3.1645619869232178 0.3800661563873291 255 255 255
9.459685325622559 3.259805917739868 0.4718896150588989 255 255 255
9.501896858215332 3.21706223487854 0.3407326638698578 255 255 255
9.482128143310547 3.2866554260253906 0.47914448380470276 255 255 255
9.898369789123535 3.427100419998169 0.438751757144928 255 255 255
9.647611618041992 3.4427223205566406 0.4157067537307739 255 255 255
9.561227798461914 3.3873724937438965 0.37355485558509827 255 255 255
9.514650344848633 3.484650135040283 0.4761388301849365 255 255 255
9.221044540405273 3.356346845626831 0.38064736127853394 255 255 255
9.167961120605469 3.383542537689209 0.4838446378707886 255 255 255
9.216893196105957 3.4421420097351074 0.4581802487373352 255 255 255
9.238789558410645 3.4859423637390137 0.42771995067596436 255 255 255
9.311206817626953 3.608494281768799 0.5924650430679321 255 255 255
9.59185791015625 3.722576379776001 0.4677877724170685 255 255 255
9.19594955444336 3.4846832752227783 0.34406471252441406 255 255 255
9.511587142944336 3.712247133255005 0.4751153290271759 255 255 255
9.522599220275879 3.818192720413208 0.5279373526573181 255 255 255
9.539605140686035 3.7340586185455322 0.40380561351776123 255 255 255
9.49321460723877 3.7315211296081543 0.5233793258666992 255 255 255
9.804167747497559 3.8837573528289795 0.4532660245895386 255 255 255
9.704832077026367 3.920153856277466 0.5015299916267395 255 255 255
9.31523323059082 3.894050359725952 0.4280354678630829 255 255 255
9.495148658752441 3.973688840866089 0.47124460339546204 255 255 255
9.400232315063477 3.9071505069732666 0.3809133470058441 255 255 255
9.349478721618652 3.978661060333252 0.5039132833480835 255 255 255
9.463723182678223 4.0541300773620605 0.48068320751190186 255 255 255
9.369917869567871 3.9696226119995117 0.5034078359603882 255 255 255
9.6690034866333 4.107250690460205 0.47564634680747986 255 255 255
9.359663963317871 4.166435241699219 0.5604490041732788 255 255 255
9.459773063659668 4.132505893707275 0.47646957635879517 255 255 255
9.42339038848877 4.131365776062012 0.41127821803092957 255 255 255
9.463997840881348 4.207523345947266 0.4032627046108246 255 255 255
9.932574272155762 4.4341254234313965 0.4427780210971832 255 255 255
9.209212303161621 4.163758754730225 0.43858402967453003 255 255 255
10.1927490234375 4.579921722412109 0.4858889579772949 255 255 255
10.011351585388184 4.625576972961426 0.41647687554359436 255 255 255
9.817483901977539 4.589065074920654 0.42242443561553955 255 255 255
10.510021209716797 4.788438320159912 0.5312378406524658 255 255 255
11.177663803100586 5.184553623199463 0.5132477879524231 255 255 255
11.101126670837402 5.2930684089660645 0.485683411359787 255 255 255
11.077605247497559 5.343280792236328 0.5217027068138123 255 255 255
11.069817543029785 5.29741096496582 0.5094851851463318 255 255 255
11.2134370803833 5.356503963470459 0.49138033390045166 255 255 255
10.644478797912598 5.143332481384277 0.48055899143218994 255 255 255
10.199557304382324 4.989326477050781 0.4017908573150635 255 255 255
10.363924980163574 5.135385990142822 0.3679367005825043 255 255 255
10.720660209655762 5.285069465637207 0.48055002093315125 255 255 255
11.373076438903809 5.569226264953613 0.44862547516822815 255 255 255
11.21507740020752 5.6575140953063965 0.38012561202049255 255 255 255
11.197385787963867 5.662200450897217 0.4611015319824219 255 255 255
11.307870864868164 5.8750104904174805 0.6135895252227783 255 255 255
11.420450210571289 5.825462818145752 0.5134090781211853 255 255 255
11.29873275756836 5.922405242919922 0.590772807598114 255 255 255
17.405126571655273 9.1082124710083 0.649431586265564 255 255 255
10.88952922821045 5.692802906036377 0.4431215226650238 255 255 255
10.812458038330078 5.8388495445251465 0.4167703092098236 255 255 255
10.784132957458496 5.872358798980713 0.5182328224182129 255 255 255
10.748017311096191 5.69437313079834 0.4186643958091736 255 255 255
7.188424587249756 3.920440196990967 0.45201629400253296 255 255 255
7.183832168579102 3.8554654121398926 0.45032578706741333 255 255 255
7.202854633331299 4.009128093719482 0.3754867911338806 255 255 255
7.4745402336120605 4.146303176879883 0.3986082971096039 255 255 255
7.205845832824707 3.9921140670776367 0.3808544874191284 255 255 255
7.133535385131836 4.022340774536133 0.33236774802207947 255 255 255
7.203212261199951 3.9946248531341553 0.42575502395629883 255 255 255
6.927407264709473 3.858642578125 0.435276597738266 255 255 255
7.021365642547607 3.9557044506073 0.37233373522758484 255 255 255
